0
121.929	-20.3429	0.000181218
122.035	-20.3429	0.000148871
122.142	-20.3429	0.000144861
122.248	-20.3429	0.000154607
122.354	-20.3429	0.00016954
122.46	-20.3429	0.000191069
111.841	-20.4324	0.00118164
111.947	-20.4324	0.00085554
112.053	-20.4324	0.0005464
112.159	-20.4324	0.000290784
112.265	-20.4324	0.000136549
112.372	-20.4324	9.94001e-05
112.478	-20.4324	0.000139608
112.584	-20.4324	0.00019454
112.69	-20.4324	0.000427778
112.796	-20.4324	0.000822214
112.903	-20.4324	0.00125146
113.009	-20.4324	0.00152956
113.115	-20.4324	0.00170948
113.221	-20.4324	0.00193144
113.327	-20.4324	0.00221024
113.434	-20.4324	0.00256683
113.54	-20.4324	0.00296904
113.646	-20.4324	0.00327342
113.752	-20.4324	0.00352399
113.858	-20.4324	0.00368131
113.965	-20.4324	0.00373467
114.071	-20.4324	0.00376333
114.177	-20.4324	0.00374128
114.283	-20.4324	0.00350931
114.389	-20.4324	0.00310926
114.496	-20.4324	0.00270913
114.602	-20.4324	0.002308
114.708	-20.4324	0.00186922
114.814	-20.4324	0.00137909
114.92	-20.4324	0.000961424
115.027	-20.4324	0.000691958
115.133	-20.4324	0.000697662
115.239	-20.4324	0.000896884
115.345	-20.4324	0.0011691
115.451	-20.4324	0.00142426
115.558	-20.4324	0.00163504
115.664	-20.4324	0.00192242
115.77	-20.4324	0.00222613
115.876	-20.4324	0.00241754
115.982	-20.4324	0.00253409
116.088	-20.4324	0.00254572
116.195	-20.4324	0.0024552
116.301	-20.4324	0.00225739
116.407	-20.4324	0.0020653
116.513	-20.4324	0.00186571
116.619	-20.4324	0.00175228
116.726	-20.4324	0.00166521
116.832	-20.4324	0.00164183
116.938	-20.4324	0.00173347
117.044	-20.4324	0.00190508
117.15	-20.4324	0.00199647
117.257	-20.4324	0.00193618
117.363	-20.4324	0.00181202
117.469	-20.4324	0.00161018
117.575	-20.4324	0.0014071
117.681	-20.4324	0.00132288
117.788	-20.4324	0.00143162
117.894	-20.4324	0.00156037
118	-20.4324	0.00161182
118.106	-20.4324	0.00157712
118.212	-20.4324	0.00149691
118.319	-20.4324	0.00145598
118.425	-20.4324	0.00147434
118.531	-20.4324	0.00148986
118.637	-20.4324	0.00148574
118.743	-20.4324	0.00147102
118.85	-20.4324	0.00144455
118.956	-20.4324	0.00138003
119.062	-20.4324	0.00128292
119.168	-20.4324	0.00122814
119.274	-20.4324	0.00140028
119.381	-20.4324	0.00169826
119.487	-20.4324	0.00198644
119.593	-20.4324	0.00228038
119.699	-20.4324	0.00266591
119.805	-20.4324	0.00300304
119.912	-20.4324	0.00320032
120.018	-20.4324	0.00346064
120.124	-20.4324	0.00365367
120.23	-20.4324	0.00382215
120.336	-20.4324	0.00383411
120.442	-20.4324	0.00368019
120.549	-20.4324	0.0033126
120.655	-20.4324	0.00289813
120.761	-20.4324	0.00246534
120.867	-20.4324	0.0019894
120.973	-20.4324	0.00142823
121.08	-20.4324	0.000909638
121.186	-20.4324	0.000522894
121.292	-20.4324	0.000291365
121.398	-20.4324	0.000214135
121.504	-20.4324	0.000199791
121.611	-20.4324	0.000200131
121.717	-20.4324	0.000187906
121.823	-20.4324	0.000163914
121.929	-20.4324	0.000136987
122.035	-20.4324	0.000112001
122.142	-20.4324	9.53784e-05
122.248	-20.4324	9.77085e-05
122.354	-20.4324	0.000117874
122.46	-20.4324	0.000155426
111.841	-20.5219	0.00106685
111.947	-20.5219	0.00075715
112.053	-20.5219	0.000470681
112.159	-20.5219	0.000229731
112.265	-20.5219	0.000116558
112.372	-20.5219	8.18129e-05
112.478	-20.5219	7.77104e-05
112.584	-20.5219	0.000131905
112.69	-20.5219	0.000276336
112.796	-20.5219	0.000495137
112.903	-20.5219	0.000884728
113.009	-20.5219	0.00113202
113.115	-20.5219	0.00128044
113.221	-20.5219	0.00144419
113.327	-20.5219	0.00170475
113.434	-20.5219	0.00216001
113.54	-20.5219	0.00263097
113.646	-20.5219	0.00297692
113.752	-20.5219	0.00326684
113.858	-20.5219	0.00347157
113.965	-20.5219	0.00355416
114.071	-20.5219	0.00365975
114.177	-20.5219	0.00366786
114.283	-20.5219	0.00349551
114.389	-20.5219	0.00317387
114.496	-20.5219	0.00283361
114.602	-20.5219	0.00242875
114.708	-20.5219	0.00195599
114.814	-20.5219	0.00141773
114.92	-20.5219	0.000955343
115.027	-20.5219	0.000653986
115.133	-20.5219	0.00062152
115.239	-20.5219	0.00081249
115.345	-20.5219	0.00106866
115.451	-20.5219	0.00130281
115.558	-20.5219	0.00148619
115.664	-20.5219	0.00169998
115.77	-20.5219	0.00194477
115.876	-20.5219	0.00216769
115.982	-20.5219	0.00230585
116.088	-20.5219	0.00232706
116.195	-20.5219	0.00225131
116.301	-20.5219	0.00212012
116.407	-20.5219	0.00201419
116.513	-20.5219	0.00189417
116.619	-20.5219	0.00181646
116.726	-20.5219	0.0017239
116.832	-20.5219	0.00170976
116.938	-20.5219	0.0018596
117.044	-20.5219	0.00203216
117.15	-20.5219	0.00212507
117.257	-20.5219	0.0020786
117.363	-20.5219	0.00193931
117.469	-20.5219	0.00172812
117.575	-20.5219	0.00145927
117.681	-20.5219	0.00127633
117.788	-20.5219	0.00132399
117.894	-20.5219	0.00142834
118	-20.5219	0.00149323
118.106	-20.5219	0.00145797
118.212	-20.5219	0.00139526
118.319	-20.5219	0.0013828
118.425	-20.5219	0.00141861
118.531	-20.5219	0.00143403
118.637	-20.5219	0.00142596
118.743	-20.5219	0.00140604
118.85	-20.5219	0.0013838
118.956	-20.5219	0.00134327
119.062	-20.5219	0.00128284
119.168	-20.5219	0.00135129
119.274	-20.5219	0.00164851
119.381	-20.5219	0.00202522
119.487	-20.5219	0.00239013
119.593	-20.5219	0.00274067
119.699	-20.5219	0.0031303
119.805	-20.5219	0.00347541
119.912	-20.5219	0.00370113
120.018	-20.5219	0.00397964
120.124	-20.5219	0.00426871
120.23	-20.5219	0.00452216
120.336	-20.5219	0.00458592
120.442	-20.5219	0.00440441
120.549	-20.5219	0.00405927
120.655	-20.5219	0.0035147
120.761	-20.5219	0.00299011
120.867	-20.5219	0.00244847
120.973	-20.5219	0.00172264
121.08	-20.5219	0.00111393
121.186	-20.5219	0.000635126
121.292	-20.5219	0.000323194
121.398	-20.5219	0.00017251
121.504	-20.5219	0.000135466
121.611	-20.5219	0.000135941
121.717	-20.5219	0.000131984
121.823	-20.5219	0.00012076
121.929	-20.5219	0.000104815
122.035	-20.5219	8.58913e-05
122.142	-20.5219	7.90486e-05
122.248	-20.5219	7.72126e-05
122.354	-20.5219	9.47698e-05
111.841	-20.6113	0.000943349
111.947	-20.6113	0.000657188
112.053	-20.6113	0.000398239
112.159	-20.6113	0.000186941
112.265	-20.6113	9.18804e-05
112.372	-20.6113	7.01809e-05
112.584	-20.6113	0.000142673
112.69	-20.6113	0.000197521
112.796	-20.6113	0.000339849
112.903	-20.6113	0.000572768
113.009	-20.6113	0.000815533
113.115	-20.6113	0.000985975
113.221	-20.6113	0.00111166
113.327	-20.6113	0.00128412
113.434	-20.6113	0.00168327
113.54	-20.6113	0.00213782
113.646	-20.6113	0.0025562
113.752	-20.6113	0.00298341
113.858	-20.6113	0.00321659
113.965	-20.6113	0.00336308
114.071	-20.6113	0.00350156
114.177	-20.6113	0.00353463
114.283	-20.6113	0.00344448
114.389	-20.6113	0.0032714
114.496	-20.6113	0.00298414
114.602	-20.6113	0.00255633
114.708	-20.6113	0.00199041
114.814	-20.6113	0.00138093
114.92	-20.6113	0.00094128
115.027	-20.6113	0.000642517
115.133	-20.6113	0.000580728
115.239	-20.6113	0.000744497
115.345	-20.6113	0.000962251
115.451	-20.6113	0.00120125
115.558	-20.6113	0.0013536
115.664	-20.6113	0.00152204
115.77	-20.6113	0.00167293
115.876	-20.6113	0.00182733
115.982	-20.6113	0.00194684
116.088	-20.6113	0.00196372
116.195	-20.6113	0.0019167
116.301	-20.6113	0.00186753
116.407	-20.6113	0.00185436
116.513	-20.6113	0.00182678
116.619	-20.6113	0.00179675
116.726	-20.6113	0.00173732
116.832	-20.6113	0.00174049
116.938	-20.6113	0.00190082
117.044	-20.6113	0.00206621
117.15	-20.6113	0.00216162
117.257	-20.6113	0.00212984
117.363	-20.6113	0.00199796
117.469	-20.6113	0.0017862
117.575	-20.6113	0.00148485
117.681	-20.6113	0.00124077
117.788	-20.6113	0.00119071
117.894	-20.6113	0.0012592
118	-20.6113	0.00128225
118.106	-20.6113	0.0012675
118.212	-20.6113	0.00121902
118.319	-20.6113	0.0012635
118.425	-20.6113	0.00131569
118.531	-20.6113	0.00133612
118.637	-20.6113	0.00131453
118.743	-20.6113	0.00128047
118.85	-20.6113	0.00125968
118.956	-20.6113	0.00126052
119.062	-20.6113	0.00129975
119.168	-20.6113	0.00146649
119.274	-20.6113	0.00185776
119.381	-20.6113	0.00230453
119.487	-20.6113	0.00270796
119.593	-20.6113	0.00309098
119.699	-20.6113	0.00351688
119.805	-20.6113	0.00389546
119.912	-20.6113	0.00423444
120.018	-20.6113	0.00469609
120.124	-20.6113	0.00509085
120.23	-20.6113	0.00536055
120.336	-20.6113	0.0055147
120.442	-20.6113	0.00532515
120.549	-20.6113	0.00491429
120.655	-20.6113	0.00424435
120.761	-20.6113	0.00367103
120.867	-20.6113	0.00298295
120.973	-20.6113	0.00213387
121.08	-20.6113	0.00136264
121.186	-20.6113	0.000782448
121.292	-20.6113	0.000374619
121.398	-20.6113	0.000148077
121.504	-20.6113	9.91831e-05
121.611	-20.6113	9.7791e-05
121.717	-20.6113	9.59309e-05
121.823	-20.6113	9.1305e-05
121.929	-20.6113	7.98268e-05
122.035	-20.6113	7.39488e-05
122.142	-20.6113	6.85453e-05
122.248	-20.6113	7.85151e-05
122.354	-20.6113	0.000104265
111.841	-20.7008	0.000773547
111.947	-20.7008	0.000521159
112.053	-20.7008	0.00030306
112.159	-20.7008	0.00014464
112.265	-20.7008	8.11044e-05
112.372	-20.7008	6.56763e-05
112.584	-20.7008	0.000152475
112.69	-20.7008	0.000185058
112.796	-20.7008	0.000209897
112.903	-20.7008	0.000335749
113.009	-20.7008	0.000524025
113.115	-20.7008	0.000703718
113.221	-20.7008	0.000808086
113.327	-20.7008	0.000913706
113.434	-20.7008	0.00120766
113.54	-20.7008	0.00160687
113.646	-20.7008	0.00208191
113.752	-20.7008	0.00257757
113.858	-20.7008	0.00291648
113.965	-20.7008	0.00317985
114.071	-20.7008	0.00337149
114.177	-20.7008	0.00344915
114.283	-20.7008	0.00344112
114.389	-20.7008	0.00333523
114.496	-20.7008	0.00310399
114.602	-20.7008	0.0026482
114.708	-20.7008	0.00197496
114.814	-20.7008	0.00138893
114.92	-20.7008	0.000964873
115.027	-20.7008	0.000680271
115.133	-20.7008	0.000559437
115.239	-20.7008	0.000650566
115.345	-20.7008	0.000838241
115.451	-20.7008	0.00103252
115.558	-20.7008	0.00119025
115.664	-20.7008	0.00133227
115.77	-20.7008	0.00143675
115.876	-20.7008	0.00148858
115.982	-20.7008	0.00154668
116.088	-20.7008	0.00154547
116.195	-20.7008	0.00150224
116.301	-20.7008	0.00151998
116.407	-20.7008	0.00161222
116.513	-20.7008	0.00170539
116.619	-20.7008	0.00174152
116.726	-20.7008	0.00175051
116.832	-20.7008	0.00178965
116.938	-20.7008	0.00187933
117.044	-20.7008	0.00200824
117.15	-20.7008	0.00210134
117.257	-20.7008	0.00210291
117.363	-20.7008	0.00200489
117.469	-20.7008	0.00182685
117.575	-20.7008	0.00152097
117.681	-20.7008	0.00123257
117.788	-20.7008	0.00109414
117.894	-20.7008	0.00108607
118	-20.7008	0.00105966
118.106	-20.7008	0.00102334
118.212	-20.7008	0.00101914
118.319	-20.7008	0.00109964
118.425	-20.7008	0.00115703
118.531	-20.7008	0.00117792
118.637	-20.7008	0.00115226
118.743	-20.7008	0.00110485
118.85	-20.7008	0.00108829
118.956	-20.7008	0.00114101
119.062	-20.7008	0.00127434
119.168	-20.7008	0.00154786
119.274	-20.7008	0.00198062
119.381	-20.7008	0.00247741
119.487	-20.7008	0.00292712
119.593	-20.7008	0.00333243
119.699	-20.7008	0.00379809
119.805	-20.7008	0.00437565
119.912	-20.7008	0.004993
120.018	-20.7008	0.00565963
120.124	-20.7008	0.00620908
120.23	-20.7008	0.00647618
120.336	-20.7008	0.00653682
120.442	-20.7008	0.00628086
120.549	-20.7008	0.00576908
120.655	-20.7008	0.00501392
120.761	-20.7008	0.00429446
120.867	-20.7008	0.00344756
120.973	-20.7008	0.00254906
121.08	-20.7008	0.00160748
121.186	-20.7008	0.000952666
121.292	-20.7008	0.000438811
121.398	-20.7008	0.000155833
121.504	-20.7008	8.65435e-05
121.611	-20.7008	7.63059e-05
121.717	-20.7008	7.267e-05
121.823	-20.7008	7.05257e-05
121.929	-20.7008	6.62539e-05
122.035	-20.7008	6.61882e-05
122.142	-20.7008	8.20118e-05
122.248	-20.7008	9.33008e-05
111.841	-20.7903	0.000613545
111.947	-20.7903	0.000396985
112.053	-20.7903	0.000220306
112.159	-20.7903	0.000125443
112.265	-20.7903	8.59624e-05
112.372	-20.7903	7.0678e-05
112.478	-20.7903	6.47713e-05
112.584	-20.7903	6.02072e-05
112.69	-20.7903	9.29487e-05
112.796	-20.7903	0.000135068
112.903	-20.7903	0.000191591
113.009	-20.7903	0.000331495
113.115	-20.7903	0.00040924
113.221	-20.7903	0.000465184
113.327	-20.7903	0.000578112
113.434	-20.7903	0.000798485
113.54	-20.7903	0.00115132
113.646	-20.7903	0.00165437
113.752	-20.7903	0.00220425
113.858	-20.7903	0.0026587
113.965	-20.7903	0.00305556
114.071	-20.7903	0.00332387
114.177	-20.7903	0.00345732
114.283	-20.7903	0.00348121
114.389	-20.7903	0.00339913
114.496	-20.7903	0.00315417
114.602	-20.7903	0.00272588
114.708	-20.7903	0.00204191
114.814	-20.7903	0.00147542
114.92	-20.7903	0.0010352
115.027	-20.7903	0.000717802
115.133	-20.7903	0.000566606
115.239	-20.7903	0.000565936
115.345	-20.7903	0.000692437
115.451	-20.7903	0.000840312
115.558	-20.7903	0.000991051
115.664	-20.7903	0.00112444
115.77	-20.7903	0.00118511
115.876	-20.7903	0.00118814
115.982	-20.7903	0.00117486
116.088	-20.7903	0.00112469
116.195	-20.7903	0.00110944
116.301	-20.7903	0.00120188
116.407	-20.7903	0.00138679
116.513	-20.7903	0.00158463
116.619	-20.7903	0.00170116
116.726	-20.7903	0.00177128
116.832	-20.7903	0.00179992
116.938	-20.7903	0.00182534
117.044	-20.7903	0.00189414
117.15	-20.7903	0.00197971
117.257	-20.7903	0.0020443
117.363	-20.7903	0.00200989
117.469	-20.7903	0.0018526
117.575	-20.7903	0.0015722
117.681	-20.7903	0.00124416
117.788	-20.7903	0.00103414
117.894	-20.7903	0.000949259
118	-20.7903	0.000887424
118.106	-20.7903	0.00083694
118.212	-20.7903	0.000827059
118.319	-20.7903	0.000900714
118.425	-20.7903	0.000953227
118.531	-20.7903	0.000974282
118.637	-20.7903	0.000941135
118.743	-20.7903	0.000879059
118.85	-20.7903	0.000873066
118.956	-20.7903	0.000986643
119.062	-20.7903	0.00118883
119.168	-20.7903	0.00153208
119.274	-20.7903	0.00201104
119.381	-20.7903	0.00257071
119.487	-20.7903	0.00307092
119.593	-20.7903	0.0035301
119.699	-20.7903	0.00413875
119.805	-20.7903	0.0048811
119.912	-20.7903	0.00590596
120.018	-20.7903	0.00671813
120.124	-20.7903	0.00734699
120.23	-20.7903	0.00761112
120.336	-20.7903	0.00754776
120.442	-20.7903	0.00723977
120.549	-20.7903	0.0065655
120.655	-20.7903	0.00566691
120.761	-20.7903	0.00481787
120.867	-20.7903	0.00387088
120.973	-20.7903	0.002894
121.08	-20.7903	0.00187759
121.186	-20.7903	0.00111394
121.292	-20.7903	0.000494416
121.398	-20.7903	0.000220914
121.504	-20.7903	0.000117972
121.611	-20.7903	6.78907e-05
121.717	-20.7903	6.28293e-05
121.823	-20.7903	5.59408e-05
122.035	-20.7903	7.21292e-05
122.142	-20.7903	8.64126e-05
122.248	-20.7903	0.000111685
111.841	-20.8797	0.000438531
111.947	-20.8797	0.000295905
112.053	-20.8797	0.000199597
112.159	-20.8797	0.000135629
112.265	-20.8797	9.89113e-05
112.372	-20.8797	8.03774e-05
112.478	-20.8797	7.43129e-05
112.584	-20.8797	6.89211e-05
112.69	-20.8797	6.48309e-05
112.796	-20.8797	9.16234e-05
112.903	-20.8797	0.000158509
113.009	-20.8797	0.000238509
113.115	-20.8797	0.000186533
113.221	-20.8797	0.000230075
113.327	-20.8797	0.000312846
113.434	-20.8797	0.000461484
113.54	-20.8797	0.000798621
113.646	-20.8797	0.00135936
113.752	-20.8797	0.00195037
113.858	-20.8797	0.00252826
113.965	-20.8797	0.00294647
114.071	-20.8797	0.00326504
114.177	-20.8797	0.00343922
114.283	-20.8797	0.00350439
114.389	-20.8797	0.00342703
114.496	-20.8797	0.00315694
114.602	-20.8797	0.00270188
114.708	-20.8797	0.00212339
114.814	-20.8797	0.00153729
114.92	-20.8797	0.00108176
115.027	-20.8797	0.000744047
115.133	-20.8797	0.000590605
115.239	-20.8797	0.000560604
115.345	-20.8797	0.000614641
115.451	-20.8797	0.000708788
115.558	-20.8797	0.000830078
115.664	-20.8797	0.00090596
115.77	-20.8797	0.000935324
115.876	-20.8797	0.000894238
115.982	-20.8797	0.000856507
116.088	-20.8797	0.000823817
116.195	-20.8797	0.000815263
116.301	-20.8797	0.000986855
116.407	-20.8797	0.00128283
116.513	-20.8797	0.00151559
116.619	-20.8797	0.00167185
116.726	-20.8797	0.00174969
116.832	-20.8797	0.00177809
116.938	-20.8797	0.00175969
117.044	-20.8797	0.00177511
117.15	-20.8797	0.00186375
117.257	-20.8797	0.00194711
117.363	-20.8797	0.00193951
117.469	-20.8797	0.00180036
117.575	-20.8797	0.00154056
117.681	-20.8797	0.00120675
117.788	-20.8797	0.000959558
117.894	-20.8797	0.000828399
118	-20.8797	0.000751997
118.106	-20.8797	0.000715574
118.212	-20.8797	0.000684089
118.319	-20.8797	0.000686957
118.425	-20.8797	0.000716484
118.531	-20.8797	0.000716869
118.637	-20.8797	0.000674536
118.743	-20.8797	0.00059398
118.85	-20.8797	0.000624614
118.956	-20.8797	0.000804248
119.062	-20.8797	0.00109652
119.168	-20.8797	0.00149075
119.274	-20.8797	0.00202117
119.381	-20.8797	0.002569
119.487	-20.8797	0.00313546
119.593	-20.8797	0.00377088
119.699	-20.8797	0.0045107
119.805	-20.8797	0.00551508
119.912	-20.8797	0.00670138
120.018	-20.8797	0.00764817
120.124	-20.8797	0.00834777
120.23	-20.8797	0.00860651
120.336	-20.8797	0.00849218
120.442	-20.8797	0.00809814
120.549	-20.8797	0.00729034
120.655	-20.8797	0.0062813
120.761	-20.8797	0.00519219
120.867	-20.8797	0.00416555
120.973	-20.8797	0.00312482
121.08	-20.8797	0.0020587
121.186	-20.8797	0.00127548
121.292	-20.8797	0.000579669
121.398	-20.8797	0.000294453
121.504	-20.8797	0.000186744
121.929	-20.8797	4.9734e-05
122.035	-20.8797	6.99811e-05
122.142	-20.8797	9.13365e-05
111.841	-20.9692	0.000330214
111.947	-20.9692	0.000252848
112.053	-20.9692	0.000199433
112.159	-20.9692	0.000156189
112.265	-20.9692	0.000126142
112.372	-20.9692	0.000109112
112.478	-20.9692	9.93408e-05
112.584	-20.9692	8.84675e-05
112.69	-20.9692	7.85556e-05
112.796	-20.9692	7.01489e-05
112.903	-20.9692	5.94658e-05
113.009	-20.9692	0.000131311
113.115	-20.9692	0.000108078
113.221	-20.9692	0.000125981
113.327	-20.9692	0.000148889
113.434	-20.9692	0.000252706
113.54	-20.9692	0.000539852
113.646	-20.9692	0.00110518
113.752	-20.9692	0.00178106
113.858	-20.9692	0.00236929
113.965	-20.9692	0.00283039
114.071	-20.9692	0.00314796
114.177	-20.9692	0.00332759
114.283	-20.9692	0.00341249
114.389	-20.9692	0.0033459
114.496	-20.9692	0.00307376
114.602	-20.9692	0.00265421
114.708	-20.9692	0.00212284
114.814	-20.9692	0.00156042
114.92	-20.9692	0.00105285
115.027	-20.9692	0.00076526
115.133	-20.9692	0.000666834
115.239	-20.9692	0.000665028
115.345	-20.9692	0.000692692
115.451	-20.9692	0.000739755
115.558	-20.9692	0.000796148
115.664	-20.9692	0.000809343
115.77	-20.9692	0.000765578
115.876	-20.9692	0.000712562
115.982	-20.9692	0.000656555
116.088	-20.9692	0.000616351
116.195	-20.9692	0.000658556
116.301	-20.9692	0.000841744
116.407	-20.9692	0.00115979
116.513	-20.9692	0.00143038
116.619	-20.9692	0.00158371
116.726	-20.9692	0.00166127
116.832	-20.9692	0.00169825
116.938	-20.9692	0.00168244
117.044	-20.9692	0.00169759
117.15	-20.9692	0.00177717
117.257	-20.9692	0.00182575
117.363	-20.9692	0.00181191
117.469	-20.9692	0.00167729
117.575	-20.9692	0.00141789
117.681	-20.9692	0.00112539
117.788	-20.9692	0.000906434
117.894	-20.9692	0.00076808
118	-20.9692	0.000677581
118.106	-20.9692	0.000618569
118.212	-20.9692	0.000551706
118.319	-20.9692	0.000450504
118.425	-20.9692	0.000425207
118.531	-20.9692	0.000449486
118.637	-20.9692	0.000417507
118.743	-20.9692	0.000317063
118.85	-20.9692	0.000370512
118.956	-20.9692	0.000634307
119.062	-20.9692	0.0010172
119.168	-20.9692	0.00143006
119.274	-20.9692	0.00195093
119.381	-20.9692	0.00253712
119.487	-20.9692	0.00324876
119.593	-20.9692	0.0040043
119.699	-20.9692	0.00497284
119.805	-20.9692	0.00611838
119.912	-20.9692	0.00733656
120.018	-20.9692	0.00836187
120.124	-20.9692	0.00903167
120.23	-20.9692	0.00930571
120.336	-20.9692	0.00911022
120.442	-20.9692	0.00861401
120.549	-20.9692	0.00781791
120.655	-20.9692	0.00677049
120.761	-20.9692	0.00551996
120.867	-20.9692	0.00432087
120.973	-20.9692	0.00315586
121.08	-20.9692	0.00219859
121.186	-20.9692	0.00127461
121.292	-20.9692	0.000599528
121.398	-20.9692	0.000290726
121.504	-20.9692	0.000147794
121.611	-20.9692	8.18165e-05
121.717	-20.9692	6.07492e-05
121.823	-20.9692	5.26731e-05
121.929	-20.9692	5.84747e-05
122.035	-20.9692	6.8729e-05
122.142	-20.9692	9.69752e-05
111.735	-21.0586	0.000354281
111.841	-21.0586	0.000296669
111.947	-21.0586	0.000248805
112.053	-21.0586	0.000213659
112.159	-21.0586	0.000182778
112.265	-21.0586	0.000161424
112.372	-21.0586	0.000155568
112.478	-21.0586	0.000139057
112.584	-21.0586	0.000121837
112.69	-21.0586	9.90195e-05
112.796	-21.0586	8.37597e-05
112.903	-21.0586	6.29002e-05
113.115	-21.0586	8.64783e-05
113.221	-21.0586	9.32665e-05
113.327	-21.0586	8.66675e-05
113.434	-21.0586	0.000149509
113.54	-21.0586	0.000391675
113.646	-21.0586	0.000944914
113.752	-21.0586	0.0015491
113.858	-21.0586	0.00212151
113.965	-21.0586	0.00259714
114.071	-21.0586	0.00292286
114.177	-21.0586	0.00312837
114.283	-21.0586	0.00321024
114.389	-21.0586	0.00314864
114.496	-21.0586	0.00289329
114.602	-21.0586	0.00251341
114.708	-21.0586	0.00204723
114.814	-21.0586	0.00154235
114.92	-21.0586	0.00104578
115.027	-21.0586	0.000817807
115.133	-21.0586	0.00081873
115.239	-21.0586	0.000874267
115.345	-21.0586	0.000913752
115.451	-21.0586	0.00093431
115.558	-21.0586	0.000943321
115.664	-21.0586	0.000900587
115.77	-21.0586	0.000813517
115.876	-21.0586	0.000706463
115.982	-21.0586	0.00060445
116.088	-21.0586	0.000531086
116.195	-21.0586	0.000547859
116.301	-21.0586	0.000696428
116.407	-21.0586	0.000998431
116.513	-21.0586	0.00125558
116.619	-21.0586	0.00142106
116.726	-21.0586	0.00150991
116.832	-21.0586	0.00154652
116.938	-21.0586	0.00156041
117.044	-21.0586	0.001634
117.15	-21.0586	0.00173104
117.257	-21.0586	0.00174839
117.363	-21.0586	0.00170343
117.469	-21.0586	0.00154808
117.575	-21.0586	0.00130532
117.681	-21.0586	0.00106319
117.788	-21.0586	0.000917212
117.894	-21.0586	0.000796947
118	-21.0586	0.000694684
118.106	-21.0586	0.00057122
118.212	-21.0586	0.000434864
118.319	-21.0586	0.000297134
118.425	-21.0586	0.000220104
118.531	-21.0586	0.000279022
118.637	-21.0586	0.000275722
118.743	-21.0586	0.000176087
118.85	-21.0586	0.00024313
118.956	-21.0586	0.000525654
119.062	-21.0586	0.00095219
119.168	-21.0586	0.00139991
119.274	-21.0586	0.00186256
119.381	-21.0586	0.00248923
119.487	-21.0586	0.00326399
119.593	-21.0586	0.00428472
119.699	-21.0586	0.00536453
119.805	-21.0586	0.00658933
119.912	-21.0586	0.0077189
120.018	-21.0586	0.00870472
120.124	-21.0586	0.00939519
120.23	-21.0586	0.00957363
120.336	-21.0586	0.00936329
120.442	-21.0586	0.00888423
120.549	-21.0586	0.00811792
120.655	-21.0586	0.00706272
120.761	-21.0586	0.0056632
120.867	-21.0586	0.00435239
120.973	-21.0586	0.00319544
121.08	-21.0586	0.00220415
121.186	-21.0586	0.00130467
121.292	-21.0586	0.000604628
121.398	-21.0586	0.000285525
121.504	-21.0586	0.000139917
121.611	-21.0586	8.61155e-05
121.717	-21.0586	6.64869e-05
121.823	-21.0586	5.99112e-05
121.929	-21.0586	6.38448e-05
122.035	-21.0586	8.31751e-05
111.735	-21.1481	0.000324805
111.841	-21.1481	0.000280622
111.947	-21.1481	0.000248569
112.053	-21.1481	0.00022797
112.159	-21.1481	0.000219287
112.265	-21.1481	0.000224252
112.372	-21.1481	0.000236652
112.478	-21.1481	0.000225296
112.584	-21.1481	0.000207796
112.69	-21.1481	0.0001618
112.796	-21.1481	0.00011611
112.903	-21.1481	8.50962e-05
113.009	-21.1481	7.69508e-05
113.221	-21.1481	8.72407e-05
113.327	-21.1481	9.16599e-05
113.434	-21.1481	0.000136844
113.54	-21.1481	0.000355432
113.646	-21.1481	0.000804878
113.752	-21.1481	0.00132465
113.858	-21.1481	0.00184475
113.965	-21.1481	0.00230254
114.071	-21.1481	0.00261938
114.177	-21.1481	0.00285637
114.283	-21.1481	0.00288764
114.389	-21.1481	0.00281966
114.496	-21.1481	0.00258628
114.602	-21.1481	0.00228391
114.708	-21.1481	0.00189586
114.814	-21.1481	0.00144577
114.92	-21.1481	0.00104804
115.027	-21.1481	0.000983003
115.133	-21.1481	0.00103352
115.239	-21.1481	0.00111266
115.345	-21.1481	0.00116258
115.451	-21.1481	0.00117426
115.558	-21.1481	0.00114441
115.664	-21.1481	0.00107379
115.77	-21.1481	0.000969221
115.876	-21.1481	0.000825271
115.982	-21.1481	0.000657664
116.088	-21.1481	0.000516594
116.195	-21.1481	0.000458454
116.301	-21.1481	0.000506041
116.407	-21.1481	0.00073709
116.513	-21.1481	0.00100672
116.619	-21.1481	0.00118624
116.726	-21.1481	0.00130061
116.832	-21.1481	0.00134111
116.938	-21.1481	0.00139184
117.044	-21.1481	0.00151362
117.15	-21.1481	0.00163878
117.257	-21.1481	0.00166211
117.363	-21.1481	0.0016065
117.469	-21.1481	0.0014574
117.575	-21.1481	0.00124844
117.681	-21.1481	0.00106417
117.788	-21.1481	0.000958006
117.894	-21.1481	0.000874147
118	-21.1481	0.000769024
118.106	-21.1481	0.000612258
118.212	-21.1481	0.000422691
118.319	-21.1481	0.000253832
118.425	-21.1481	0.000173635
118.531	-21.1481	0.000176244
118.637	-21.1481	0.000172166
118.743	-21.1481	0.00014312
118.85	-21.1481	0.000218305
118.956	-21.1481	0.000503465
119.062	-21.1481	0.000909269
119.168	-21.1481	0.00135466
119.274	-21.1481	0.00180279
119.381	-21.1481	0.00246051
119.487	-21.1481	0.00339215
119.593	-21.1481	0.00447558
119.699	-21.1481	0.00566315
119.805	-21.1481	0.00687091
119.912	-21.1481	0.00785818
120.018	-21.1481	0.00873467
120.124	-21.1481	0.00927842
120.23	-21.1481	0.00947483
120.336	-21.1481	0.00926252
120.442	-21.1481	0.00881917
120.549	-21.1481	0.00809662
120.655	-21.1481	0.00700843
120.761	-21.1481	0.00569732
120.867	-21.1481	0.00426785
120.973	-21.1481	0.00316952
121.08	-21.1481	0.0020907
121.186	-21.1481	0.00119792
121.292	-21.1481	0.00062591
121.398	-21.1481	0.000303808
121.504	-21.1481	0.000159946
121.611	-21.1481	0.000101975
121.717	-21.1481	7.96443e-05
121.823	-21.1481	6.78971e-05
121.929	-21.1481	7.40803e-05
122.035	-21.1481	9.60875e-05
111.735	-21.2376	0.000300643
111.841	-21.2376	0.00026814
111.947	-21.2376	0.000249289
112.053	-21.2376	0.000251025
112.159	-21.2376	0.0002958
112.265	-21.2376	0.000377936
112.372	-21.2376	0.000446123
112.478	-21.2376	0.000465394
112.584	-21.2376	0.000414305
112.69	-21.2376	0.000325624
112.796	-21.2376	0.000216806
112.903	-21.2376	0.000137086
113.009	-21.2376	0.000138828
113.115	-21.2376	0.000102931
113.221	-21.2376	0.000105026
113.327	-21.2376	0.000108639
113.434	-21.2376	0.000164075
113.54	-21.2376	0.000412435
113.646	-21.2376	0.000809944
113.752	-21.2376	0.00121032
113.858	-21.2376	0.00163559
113.965	-21.2376	0.00201743
114.071	-21.2376	0.0023475
114.177	-21.2376	0.00250831
114.283	-21.2376	0.0025331
114.389	-21.2376	0.00244267
114.496	-21.2376	0.00229362
114.602	-21.2376	0.00203806
114.708	-21.2376	0.00170483
114.814	-21.2376	0.00131043
114.92	-21.2376	0.00112978
115.027	-21.2376	0.00116532
115.133	-21.2376	0.00123241
115.239	-21.2376	0.00130399
115.345	-21.2376	0.00135291
115.451	-21.2376	0.00135738
115.558	-21.2376	0.00130316
115.664	-21.2376	0.00123683
115.77	-21.2376	0.00113464
115.876	-21.2376	0.000987987
115.982	-21.2376	0.000787763
116.088	-21.2376	0.000562549
116.195	-21.2376	0.000393184
116.301	-21.2376	0.000351605
116.407	-21.2376	0.000435378
116.513	-21.2376	0.000684453
116.619	-21.2376	0.000887157
116.726	-21.2376	0.00101867
116.832	-21.2376	0.00108313
116.938	-21.2376	0.00116841
117.044	-21.2376	0.00133675
117.15	-21.2376	0.00147502
117.257	-21.2376	0.00150659
117.363	-21.2376	0.00147052
117.469	-21.2376	0.00134627
117.575	-21.2376	0.00119143
117.681	-21.2376	0.00106528
117.788	-21.2376	0.00100684
117.894	-21.2376	0.00093799
118	-21.2376	0.000834505
118.106	-21.2376	0.000671884
118.212	-21.2376	0.00047141
118.319	-21.2376	0.000282691
118.425	-21.2376	0.000168608
118.531	-21.2376	6.90015e-05
118.743	-21.2376	0.000178203
118.85	-21.2376	0.000308331
118.956	-21.2376	0.000491928
119.062	-21.2376	0.000922848
119.168	-21.2376	0.00135275
119.274	-21.2376	0.00185349
119.381	-21.2376	0.00255989
119.487	-21.2376	0.00345874
119.593	-21.2376	0.00462483
119.699	-21.2376	0.00594093
119.805	-21.2376	0.00705214
119.912	-21.2376	0.00800101
120.018	-21.2376	0.00859878
120.124	-21.2376	0.00902467
120.23	-21.2376	0.00915164
120.336	-21.2376	0.00896717
120.442	-21.2376	0.00857273
120.549	-21.2376	0.00792298
120.655	-21.2376	0.00690978
120.761	-21.2376	0.00564064
120.867	-21.2376	0.00420721
120.973	-21.2376	0.00291329
121.08	-21.2376	0.00193481
121.186	-21.2376	0.00109397
121.292	-21.2376	0.000614474
121.398	-21.2376	0.000345733
121.504	-21.2376	0.000202418
121.611	-21.2376	0.000133869
121.717	-21.2376	0.000107742
121.823	-21.2376	9.63558e-05
121.929	-21.2376	0.000100496
111.735	-21.327	0.000276379
111.841	-21.327	0.000253076
111.947	-21.327	0.000258877
112.053	-21.327	0.000334129
112.159	-21.327	0.000467234
112.265	-21.327	0.000619216
112.372	-21.327	0.000731678
112.478	-21.327	0.000772116
112.584	-21.327	0.000745599
112.69	-21.327	0.000608023
112.796	-21.327	0.000438393
112.903	-21.327	0.000294645
113.009	-21.327	0.000220709
113.115	-21.327	0.000155504
113.221	-21.327	0.000123918
113.327	-21.327	0.000154944
113.434	-21.327	0.00025154
113.54	-21.327	0.000479282
113.646	-21.327	0.000845945
113.752	-21.327	0.00118493
113.858	-21.327	0.00155652
113.965	-21.327	0.00190084
114.071	-21.327	0.00214274
114.177	-21.327	0.00225694
114.283	-21.327	0.0022798
114.389	-21.327	0.00220372
114.496	-21.327	0.00203723
114.602	-21.327	0.00179408
114.708	-21.327	0.00148726
114.814	-21.327	0.0012382
114.92	-21.327	0.00120606
115.027	-21.327	0.00131469
115.133	-21.327	0.00140456
115.239	-21.327	0.00146566
115.345	-21.327	0.00150679
115.451	-21.327	0.00149089
115.558	-21.327	0.00143003
115.664	-21.327	0.00136266
115.77	-21.327	0.00126819
115.876	-21.327	0.00113077
115.982	-21.327	0.00092946
116.088	-21.327	0.000626884
116.195	-21.327	0.000359801
116.301	-21.327	0.000237527
116.407	-21.327	0.000224063
116.513	-21.327	0.000353492
116.619	-21.327	0.000545636
116.726	-21.327	0.000676783
116.832	-21.327	0.000765107
116.938	-21.327	0.000899649
117.044	-21.327	0.00111025
117.15	-21.327	0.00123623
117.257	-21.327	0.00127849
117.363	-21.327	0.00127962
117.469	-21.327	0.00118823
117.575	-21.327	0.00111872
117.681	-21.327	0.00107421
117.788	-21.327	0.00103672
117.894	-21.327	0.000970288
118	-21.327	0.000857553
118.106	-21.327	0.00070713
118.212	-21.327	0.000497343
118.319	-21.327	0.000271441
118.425	-21.327	0.000112073
118.531	-21.327	6.65102e-05
118.743	-21.327	0.000196996
118.85	-21.327	0.0002632
118.956	-21.327	0.000456798
119.062	-21.327	0.000859635
119.168	-21.327	0.00136899
119.274	-21.327	0.00197832
119.381	-21.327	0.00265786
119.487	-21.327	0.0035519
119.593	-21.327	0.00471016
119.699	-21.327	0.00590704
119.805	-21.327	0.00694741
119.912	-21.327	0.00787468
120.018	-21.327	0.00850906
120.124	-21.327	0.00878452
120.23	-21.327	0.00880044
120.336	-21.327	0.00859949
120.442	-21.327	0.00825536
120.549	-21.327	0.00763919
120.655	-21.327	0.0067396
120.761	-21.327	0.00548655
120.867	-21.327	0.00392445
120.973	-21.327	0.00266552
121.08	-21.327	0.00163683
121.186	-21.327	0.000927849
121.292	-21.327	0.000567785
121.398	-21.327	0.000361656
121.504	-21.327	0.000229188
121.611	-21.327	0.000167766
121.717	-21.327	0.000137569
121.823	-21.327	0.000125844
121.929	-21.327	0.000129073
111.735	-21.4165	0.000249888
111.841	-21.4165	0.000244284
111.947	-21.4165	0.000305491
112.053	-21.4165	0.000461885
112.159	-21.4165	0.000680953
112.265	-21.4165	0.000882763
112.372	-21.4165	0.00100144
112.478	-21.4165	0.00105864
112.584	-21.4165	0.00103743
112.69	-21.4165	0.000937191
112.796	-21.4165	0.000782233
112.903	-21.4165	0.000564202
113.009	-21.4165	0.000377798
113.115	-21.4165	0.000219971
113.221	-21.4165	0.000205565
113.327	-21.4165	0.000259249
113.434	-21.4165	0.000381009
113.54	-21.4165	0.000594163
113.646	-21.4165	0.00092573
113.752	-21.4165	0.00129894
113.858	-21.4165	0.00164649
113.965	-21.4165	0.00196027
114.071	-21.4165	0.00212681
114.177	-21.4165	0.00219221
114.283	-21.4165	0.00217425
114.389	-21.4165	0.00205108
114.496	-21.4165	0.00187593
114.602	-21.4165	0.00161077
114.708	-21.4165	0.00134758
114.814	-21.4165	0.0011919
114.92	-21.4165	0.00124704
115.027	-21.4165	0.00139778
115.133	-21.4165	0.00152518
115.239	-21.4165	0.00159416
115.345	-21.4165	0.00162354
115.451	-21.4165	0.00161014
115.558	-21.4165	0.00155777
115.664	-21.4165	0.00148932
115.77	-21.4165	0.00140092
115.876	-21.4165	0.00124414
115.982	-21.4165	0.00103608
116.088	-21.4165	0.000689276
116.195	-21.4165	0.000371958
116.301	-21.4165	0.000187272
116.407	-21.4165	0.000134872
116.513	-21.4165	0.000172503
116.619	-21.4165	0.00031124
116.726	-21.4165	0.000378822
116.832	-21.4165	0.000426618
116.938	-21.4165	0.000540596
117.044	-21.4165	0.000776866
117.15	-21.4165	0.000922191
117.257	-21.4165	0.000978181
117.363	-21.4165	0.00105415
117.469	-21.4165	0.00105488
117.575	-21.4165	0.00105839
117.681	-21.4165	0.00105989
117.788	-21.4165	0.00103301
117.894	-21.4165	0.000966007
118	-21.4165	0.000853134
118.106	-21.4165	0.000703361
118.212	-21.4165	0.00050631
118.319	-21.4165	0.000243391
118.425	-21.4165	0.000104932
118.531	-21.4165	6.74634e-05
118.743	-21.4165	0.00010111
118.85	-21.4165	0.000162044
118.956	-21.4165	0.000339129
119.062	-21.4165	0.000780602
119.168	-21.4165	0.00145482
119.274	-21.4165	0.00205841
119.381	-21.4165	0.00267987
119.487	-21.4165	0.00357592
119.593	-21.4165	0.00461603
119.699	-21.4165	0.00571553
119.805	-21.4165	0.00673202
119.912	-21.4165	0.00759955
120.018	-21.4165	0.00826674
120.124	-21.4165	0.00852406
120.23	-21.4165	0.00847553
120.336	-21.4165	0.00822178
120.442	-21.4165	0.00780622
120.549	-21.4165	0.00721596
120.655	-21.4165	0.00635887
120.761	-21.4165	0.00515783
120.867	-21.4165	0.00366805
120.973	-21.4165	0.00236178
121.08	-21.4165	0.001323
121.186	-21.4165	0.000786698
121.292	-21.4165	0.000513561
121.398	-21.4165	0.000354757
121.504	-21.4165	0.00024186
121.611	-21.4165	0.000181242
121.717	-21.4165	0.000155864
121.823	-21.4165	0.000142285
111.735	-21.506	0.000223834
111.841	-21.506	0.00024687
111.947	-21.506	0.000364122
112.053	-21.506	0.000589657
112.159	-21.506	0.000860394
112.265	-21.506	0.00107403
112.372	-21.506	0.00122032
112.478	-21.506	0.00131371
112.584	-21.506	0.00131151
112.69	-21.506	0.00123568
112.796	-21.506	0.00111092
112.903	-21.506	0.000890117
113.009	-21.506	0.000656903
113.115	-21.506	0.00044076
113.221	-21.506	0.000370833
113.327	-21.506	0.000441116
113.434	-21.506	0.000558231
113.54	-21.506	0.000756768
113.646	-21.506	0.00106619
113.752	-21.506	0.00146364
113.858	-21.506	0.00188281
113.965	-21.506	0.00216642
114.071	-21.506	0.0023074
114.177	-21.506	0.00231643
114.283	-21.506	0.00221294
114.389	-21.506	0.00203411
114.496	-21.506	0.00180481
114.602	-21.506	0.00152124
114.708	-21.506	0.00126005
114.814	-21.506	0.00115207
114.92	-21.506	0.00126351
115.027	-21.506	0.00143386
115.133	-21.506	0.00156793
115.239	-21.506	0.0016509
115.345	-21.506	0.00170753
115.451	-21.506	0.0017417
115.558	-21.506	0.00173657
115.664	-21.506	0.00168729
115.77	-21.506	0.00159055
115.876	-21.506	0.00141841
115.982	-21.506	0.00114417
116.088	-21.506	0.000752036
116.195	-21.506	0.000385239
116.301	-21.506	0.000175712
116.407	-21.506	0.000101753
116.513	-21.506	9.69776e-05
116.619	-21.506	0.000229318
116.726	-21.506	0.000220509
116.832	-21.506	0.000202569
116.938	-21.506	0.000264174
117.044	-21.506	0.000409203
117.15	-21.506	0.000577396
117.257	-21.506	0.000677881
117.363	-21.506	0.000829807
117.469	-21.506	0.000942596
117.575	-21.506	0.000989786
117.681	-21.506	0.00100989
117.788	-21.506	0.00099663
117.894	-21.506	0.000926595
118	-21.506	0.00081916
118.106	-21.506	0.000666186
118.212	-21.506	0.000475734
118.319	-21.506	0.000241036
118.425	-21.506	9.97997e-05
118.531	-21.506	6.85074e-05
118.743	-21.506	8.07536e-05
118.85	-21.506	0.000101482
118.956	-21.506	0.000244142
119.062	-21.506	0.000756102
119.168	-21.506	0.00143038
119.274	-21.506	0.00203679
119.381	-21.506	0.002614
119.487	-21.506	0.00343949
119.593	-21.506	0.00444959
119.699	-21.506	0.00540921
119.805	-21.506	0.00642234
119.912	-21.506	0.00728695
120.018	-21.506	0.00782223
120.124	-21.506	0.00810576
120.23	-21.506	0.00803642
120.336	-21.506	0.00774935
120.442	-21.506	0.0073042
120.549	-21.506	0.00669991
120.655	-21.506	0.00583408
120.761	-21.506	0.00455529
120.867	-21.506	0.00318969
120.973	-21.506	0.00190274
121.08	-21.506	0.00105853
121.186	-21.506	0.000654689
121.292	-21.506	0.000457206
121.398	-21.506	0.000331199
121.504	-21.506	0.000237875
121.611	-21.506	0.000191993
121.717	-21.506	0.000165495
121.823	-21.506	0.000149107
111.628	-21.5954	0.000208947
111.735	-21.5954	0.000193895
111.841	-21.5954	0.000260481
111.947	-21.5954	0.000444283
112.053	-21.5954	0.000706138
112.159	-21.5954	0.00100987
112.265	-21.5954	0.00124638
112.372	-21.5954	0.00143208
112.478	-21.5954	0.00152599
112.584	-21.5954	0.00154084
112.69	-21.5954	0.00149736
112.796	-21.5954	0.00139812
112.903	-21.5954	0.00122069
113.009	-21.5954	0.00100519
113.115	-21.5954	0.000799424
113.221	-21.5954	0.000651572
113.327	-21.5954	0.000692604
113.434	-21.5954	0.000819964
113.54	-21.5954	0.0010247
113.646	-21.5954	0.00133336
113.752	-21.5954	0.00176877
113.858	-21.5954	0.00212995
113.965	-21.5954	0.00240746
114.071	-21.5954	0.00253974
114.177	-21.5954	0.00249595
114.283	-21.5954	0.00234369
114.389	-21.5954	0.00209626
114.496	-21.5954	0.00178724
114.602	-21.5954	0.00144591
114.708	-21.5954	0.00119148
114.814	-21.5954	0.0011328
114.92	-21.5954	0.00125897
115.027	-21.5954	0.00142802
115.133	-21.5954	0.0015582
115.239	-21.5954	0.00166711
115.345	-21.5954	0.00179345
115.451	-21.5954	0.00191841
115.558	-21.5954	0.00197081
115.664	-21.5954	0.00197548
115.77	-21.5954	0.0018916
115.876	-21.5954	0.00169699
115.982	-21.5954	0.00136137
116.088	-21.5954	0.000927168
116.195	-21.5954	0.000464953
116.301	-21.5954	0.000194197
116.407	-21.5954	0.000103763
116.513	-21.5954	7.34139e-05
116.619	-21.5954	5.94658e-05
116.726	-21.5954	0.000123982
116.832	-21.5954	0.000122314
116.938	-21.5954	0.000144354
117.257	-21.5954	0.000491965
117.363	-21.5954	0.000655596
117.469	-21.5954	0.000778691
117.575	-21.5954	0.0008485
117.681	-21.5954	0.000893517
117.788	-21.5954	0.000909698
117.894	-21.5954	0.000849841
118	-21.5954	0.000749173
118.106	-21.5954	0.000601738
118.212	-21.5954	0.000400464
118.319	-21.5954	0.000245332
118.425	-21.5954	0.000122262
118.531	-21.5954	6.14759e-05
118.743	-21.5954	6.3017e-05
118.85	-21.5954	8.55814e-05
118.956	-21.5954	0.000202245
119.062	-21.5954	0.000657204
119.168	-21.5954	0.00134731
119.274	-21.5954	0.0019278
119.381	-21.5954	0.00248733
119.487	-21.5954	0.00317757
119.593	-21.5954	0.0040742
119.699	-21.5954	0.00501183
119.805	-21.5954	0.00599529
119.912	-21.5954	0.00670864
120.018	-21.5954	0.00718607
120.124	-21.5954	0.00746666
120.23	-21.5954	0.00744564
120.336	-21.5954	0.00716176
120.442	-21.5954	0.00667427
120.549	-21.5954	0.00605492
120.655	-21.5954	0.00509535
120.761	-21.5954	0.00388909
120.867	-21.5954	0.00264304
120.973	-21.5954	0.00155834
121.08	-21.5954	0.00086544
121.186	-21.5954	0.000544855
121.292	-21.5954	0.000392043
121.398	-21.5954	0.000291749
121.504	-21.5954	0.000227944
121.611	-21.5954	0.000193384
121.717	-21.5954	0.0001675
111.628	-21.6849	0.000167176
111.735	-21.6849	0.000174479
111.841	-21.6849	0.000260677
111.947	-21.6849	0.000478799
112.053	-21.6849	0.000798792
112.159	-21.6849	0.00112734
112.265	-21.6849	0.00140167
112.372	-21.6849	0.00158839
112.478	-21.6849	0.00169312
112.584	-21.6849	0.00172709
112.69	-21.6849	0.00168978
112.796	-21.6849	0.00161772
112.903	-21.6849	0.00146321
113.009	-21.6849	0.00128283
113.115	-21.6849	0.00112739
113.221	-21.6849	0.000984019
113.327	-21.6849	0.000969543
113.434	-21.6849	0.00114355
113.54	-21.6849	0.0014233
113.646	-21.6849	0.00178129
113.752	-21.6849	0.00210418
113.858	-21.6849	0.00240549
113.965	-21.6849	0.00261669
114.071	-21.6849	0.00270934
114.177	-21.6849	0.00262808
114.283	-21.6849	0.0024105
114.389	-21.6849	0.00210978
114.496	-21.6849	0.00171943
114.602	-21.6849	0.00136137
114.708	-21.6849	0.00111953
114.814	-21.6849	0.00110837
114.92	-21.6849	0.00121807
115.027	-21.6849	0.0013848
115.133	-21.6849	0.00151053
115.239	-21.6849	0.00170356
115.345	-21.6849	0.00192487
115.451	-21.6849	0.00212995
115.558	-21.6849	0.00223538
115.664	-21.6849	0.00224574
115.77	-21.6849	0.00215386
115.876	-21.6849	0.00198261
115.982	-21.6849	0.00162883
116.088	-21.6849	0.0011532
116.195	-21.6849	0.000631355
116.301	-21.6849	0.000269115
116.407	-21.6849	0.000127328
116.513	-21.6849	7.5773e-05
116.619	-21.6849	6.55788e-05
116.832	-21.6849	7.41431e-05
116.938	-21.6849	9.67944e-05
117.575	-21.6849	0.000659083
117.681	-21.6849	0.000722394
117.788	-21.6849	0.00073813
117.894	-21.6849	0.000701141
118	-21.6849	0.000617381
118.106	-21.6849	0.000474663
118.212	-21.6849	0.000286951
118.319	-21.6849	0.000196819
118.425	-21.6849	0.000122546
118.743	-21.6849	5.92768e-05
118.85	-21.6849	9.09457e-05
118.956	-21.6849	0.000220778
119.062	-21.6849	0.000605856
119.168	-21.6849	0.00119496
119.274	-21.6849	0.00172233
119.381	-21.6849	0.00220352
119.487	-21.6849	0.00276342
119.593	-21.6849	0.00352118
119.699	-21.6849	0.00440746
119.805	-21.6849	0.00531453
119.912	-21.6849	0.00590756
120.018	-21.6849	0.00636022
120.124	-21.6849	0.00662841
120.23	-21.6849	0.00665311
120.336	-21.6849	0.00634407
120.442	-21.6849	0.0058484
120.549	-21.6849	0.00516001
120.655	-21.6849	0.00420281
120.761	-21.6849	0.0031622
120.867	-21.6849	0.00210845
120.973	-21.6849	0.00125314
121.08	-21.6849	0.000763014
121.186	-21.6849	0.00046472
121.292	-21.6849	0.000324985
121.398	-21.6849	0.000253788
121.504	-21.6849	0.000214351
121.611	-21.6849	0.000187484
121.717	-21.6849	0.000161549
111.628	-21.7744	0.000129717
111.735	-21.7744	0.000142255
111.841	-21.7744	0.000252253
111.947	-21.7744	0.000503249
112.053	-21.7744	0.0008457
112.159	-21.7744	0.0012247
112.265	-21.7744	0.00149024
112.372	-21.7744	0.00167258
112.478	-21.7744	0.00178318
112.584	-21.7744	0.00184419
112.69	-21.7744	0.0018443
112.796	-21.7744	0.00176999
112.903	-21.7744	0.00165217
113.009	-21.7744	0.00152143
113.115	-21.7744	0.00139365
113.221	-21.7744	0.00129611
113.327	-21.7744	0.00137311
113.434	-21.7744	0.00162065
113.54	-21.7744	0.00203103
113.646	-21.7744	0.00236478
113.752	-21.7744	0.00263053
113.858	-21.7744	0.00275169
113.965	-21.7744	0.00283914
114.071	-21.7744	0.00285565
114.177	-21.7744	0.00271784
114.283	-21.7744	0.00240475
114.389	-21.7744	0.00208707
114.496	-21.7744	0.00169884
114.602	-21.7744	0.00134693
114.708	-21.7744	0.00107934
114.814	-21.7744	0.00104091
114.92	-21.7744	0.0011283
115.027	-21.7744	0.00127917
115.133	-21.7744	0.00144819
115.239	-21.7744	0.00172747
115.345	-21.7744	0.00204218
115.451	-21.7744	0.0022805
115.558	-21.7744	0.00240828
115.664	-21.7744	0.00242581
115.77	-21.7744	0.00232238
115.876	-21.7744	0.00211813
115.982	-21.7744	0.00177997
116.088	-21.7744	0.00133267
116.195	-21.7744	0.000840448
116.301	-21.7744	0.000418804
116.407	-21.7744	0.000177662
116.513	-21.7744	9.45534e-05
116.619	-21.7744	6.90305e-05
116.726	-21.7744	5.59408e-05
117.788	-21.7744	0.000547304
117.894	-21.7744	0.000515473
118	-21.7744	0.000438873
118.106	-21.7744	0.000318997
118.212	-21.7744	0.000195815
118.319	-21.7744	0.000114478
118.425	-21.7744	9.78655e-05
118.743	-21.7744	5.59408e-05
118.85	-21.7744	0.00014999
118.956	-21.7744	0.000268978
119.062	-21.7744	0.000587324
119.168	-21.7744	0.00106119
119.274	-21.7744	0.00150112
119.381	-21.7744	0.00189066
119.487	-21.7744	0.00233127
119.593	-21.7744	0.00295035
119.699	-21.7744	0.00370327
119.805	-21.7744	0.00449238
119.912	-21.7744	0.00504607
120.018	-21.7744	0.00554578
120.124	-21.7744	0.00570348
120.23	-21.7744	0.00566067
120.336	-21.7744	0.00528846
120.442	-21.7744	0.00476438
120.549	-21.7744	0.00402527
120.655	-21.7744	0.00326476
120.761	-21.7744	0.00239041
120.867	-21.7744	0.00158577
120.973	-21.7744	0.00106542
121.08	-21.7744	0.00069425
121.186	-21.7744	0.000410135
121.292	-21.7744	0.000285355
121.398	-21.7744	0.000225954
121.504	-21.7744	0.000200072
121.611	-21.7744	0.000175446
111.628	-21.8638	0.000101167
111.735	-21.8638	0.000108542
111.841	-21.8638	0.000216032
111.947	-21.8638	0.000498438
112.053	-21.8638	0.000871297
112.159	-21.8638	0.00124089
112.265	-21.8638	0.00150991
112.372	-21.8638	0.00170205
112.478	-21.8638	0.00182513
112.584	-21.8638	0.00191289
112.69	-21.8638	0.00193375
112.796	-21.8638	0.00188947
112.903	-21.8638	0.00180475
113.009	-21.8638	0.00173986
113.115	-21.8638	0.00169999
113.221	-21.8638	0.00172133
113.327	-21.8638	0.00187895
113.434	-21.8638	0.00229275
113.54	-21.8638	0.00268721
113.646	-21.8638	0.00307499
113.752	-21.8638	0.00332875
113.858	-21.8638	0.003418
113.965	-21.8638	0.00333705
114.071	-21.8638	0.00315955
114.177	-21.8638	0.00285725
114.283	-21.8638	0.0025022
114.389	-21.8638	0.00212239
114.496	-21.8638	0.001745
114.602	-21.8638	0.00135198
114.708	-21.8638	0.00103683
114.814	-21.8638	0.00091973
114.92	-21.8638	0.000985845
115.027	-21.8638	0.00112523
115.133	-21.8638	0.00135542
115.239	-21.8638	0.00171253
115.345	-21.8638	0.00208427
115.451	-21.8638	0.00235337
115.558	-21.8638	0.00249385
115.664	-21.8638	0.00249212
115.77	-21.8638	0.00238937
115.876	-21.8638	0.0021833
115.982	-21.8638	0.00186856
116.088	-21.8638	0.00143751
116.195	-21.8638	0.000991646
116.301	-21.8638	0.00057094
116.407	-21.8638	0.000250715
116.513	-21.8638	0.000115008
116.619	-21.8638	7.0567e-05
116.726	-21.8638	5.83998e-05
118	-21.8638	0.000276934
118.106	-21.8638	0.000223301
118.212	-21.8638	0.000147097
118.319	-21.8638	0.000102343
118.425	-21.8638	6.14759e-05
118.743	-21.8638	0.000134636
118.85	-21.8638	0.000201323
118.956	-21.8638	0.000291434
119.062	-21.8638	0.00056232
119.168	-21.8638	0.000958378
119.274	-21.8638	0.00135584
119.381	-21.8638	0.00166451
119.487	-21.8638	0.00198551
119.593	-21.8638	0.00241519
119.699	-21.8638	0.00300625
119.805	-21.8638	0.00363942
119.912	-21.8638	0.00419993
120.018	-21.8638	0.00456476
120.124	-21.8638	0.00477786
120.23	-21.8638	0.00457023
120.336	-21.8638	0.00416887
120.442	-21.8638	0.00361934
120.549	-21.8638	0.00299128
120.655	-21.8638	0.00237232
120.761	-21.8638	0.00175768
120.867	-21.8638	0.00125733
120.973	-21.8638	0.000911111
121.08	-21.8638	0.00063431
121.186	-21.8638	0.000397159
121.292	-21.8638	0.000270433
121.398	-21.8638	0.000215759
121.504	-21.8638	0.000183174
121.611	-21.8638	0.000158063
111.628	-21.9533	8.31422e-05
111.735	-21.9533	8.46999e-05
111.841	-21.9533	0.000181885
111.947	-21.9533	0.000467553
112.053	-21.9533	0.000796835
112.159	-21.9533	0.00118931
112.265	-21.9533	0.00148609
112.372	-21.9533	0.00166907
112.478	-21.9533	0.00181246
112.584	-21.9533	0.00192219
112.69	-21.9533	0.00196492
112.796	-21.9533	0.0019397
112.903	-21.9533	0.00191173
113.009	-21.9533	0.00194326
113.115	-21.9533	0.00200965
113.221	-21.9533	0.00212287
113.327	-21.9533	0.00240465
113.434	-21.9533	0.00288544
113.54	-21.9533	0.00341103
113.646	-21.9533	0.00386781
113.752	-21.9533	0.00415595
113.858	-21.9533	0.00422139
113.965	-21.9533	0.00401631
114.071	-21.9533	0.00364696
114.177	-21.9533	0.003206
114.283	-21.9533	0.00273809
114.389	-21.9533	0.00227251
114.496	-21.9533	0.00182786
114.602	-21.9533	0.00139455
114.708	-21.9533	0.0010007
114.814	-21.9533	0.000809798
114.92	-21.9533	0.000814554
115.027	-21.9533	0.000938067
115.133	-21.9533	0.00121873
115.239	-21.9533	0.00167342
115.345	-21.9533	0.00205749
115.451	-21.9533	0.00233826
115.558	-21.9533	0.002455
115.664	-21.9533	0.0024597
115.77	-21.9533	0.00235574
115.876	-21.9533	0.00215051
115.982	-21.9533	0.00184323
116.088	-21.9533	0.00143584
116.195	-21.9533	0.00102796
116.301	-21.9533	0.000675176
116.407	-21.9533	0.000344167
116.513	-21.9533	0.000141916
116.619	-21.9533	7.94279e-05
116.726	-21.9533	5.97135e-05
118.212	-21.9533	0.000104147
118.319	-21.9533	0.000118417
118.85	-21.9533	0.000220423
118.956	-21.9533	0.000323757
119.062	-21.9533	0.000487761
119.168	-21.9533	0.000829857
119.274	-21.9533	0.00121557
119.381	-21.9533	0.00146855
119.487	-21.9533	0.00171371
119.593	-21.9533	0.00196755
119.699	-21.9533	0.00236105
119.805	-21.9533	0.00283583
119.912	-21.9533	0.00329016
120.018	-21.9533	0.00356233
120.124	-21.9533	0.00374305
120.23	-21.9533	0.00355694
120.336	-21.9533	0.00312415
120.442	-21.9533	0.00259373
120.549	-21.9533	0.00212612
120.655	-21.9533	0.00170034
120.761	-21.9533	0.00130876
120.867	-21.9533	0.0010381
120.973	-21.9533	0.000828778
121.08	-21.9533	0.000607794
121.186	-21.9533	0.000379263
121.292	-21.9533	0.000265514
121.398	-21.9533	0.000204889
121.504	-21.9533	0.000166047
111.628	-22.0427	7.33322e-05
111.735	-22.0427	7.82303e-05
111.841	-22.0427	0.000155453
111.947	-22.0427	0.000372535
112.053	-22.0427	0.000718167
112.159	-22.0427	0.001101
112.265	-22.0427	0.00140077
112.372	-22.0427	0.00160797
112.478	-22.0427	0.00177669
112.584	-22.0427	0.00189528
112.69	-22.0427	0.00195186
112.796	-22.0427	0.00197204
112.903	-22.0427	0.0020265
113.009	-22.0427	0.00214604
