0
109.823	-16.0487	0.000108135
109.929	-16.0487	0.000117871
110.035	-16.0487	0.000127048
110.142	-16.0487	0.000146464
110.248	-16.0487	0.000184203
110.354	-16.0487	0.000246822
110.46	-16.0487	0.000308252
110.566	-16.0487	0.000361534
110.673	-16.0487	0.000402536
110.779	-16.0487	0.000425572
110.885	-16.0487	0.000431162
110.991	-16.0487	0.000419804
111.097	-16.0487	0.000402041
111.204	-16.0487	0.000403546
111.31	-16.0487	0.000407284
111.416	-16.0487	0.00042075
111.522	-16.0487	0.000449298
111.628	-16.0487	0.000480954
111.735	-16.0487	0.000507652
111.841	-16.0487	0.000526333
111.947	-16.0487	0.000537789
112.053	-16.0487	0.000545628
112.159	-16.0487	0.000546498
112.265	-16.0487	0.000543666
112.372	-16.0487	0.000537305
112.478	-16.0487	0.000533583
112.584	-16.0487	0.000530339
112.69	-16.0487	0.000519544
112.796	-16.0487	0.000502623
112.903	-16.0487	0.000483991
113.009	-16.0487	0.000457938
113.115	-16.0487	0.000430864
113.221	-16.0487	0.000400131
113.327	-16.0487	0.000362381
113.434	-16.0487	0.000324929
113.54	-16.0487	0.000281027
113.646	-16.0487	0.000237906
113.752	-16.0487	0.000190709
113.858	-16.0487	0.000153658
113.965	-16.0487	0.000134264
114.071	-16.0487	0.000123345
114.177	-16.0487	0.000112001
114.283	-16.0487	0.000100915
114.389	-16.0487	9.21221e-05
114.496	-16.0487	8.66962e-05
114.602	-16.0487	8.21447e-05
125.009	-16.0487	0.00075812
125.115	-16.0487	0.000707975
125.221	-16.0487	0.000641962
125.327	-16.0487	0.000574675
125.434	-16.0487	0.000501854
125.54	-16.0487	0.00045004
125.646	-16.0487	0.000458486
125.752	-16.0487	0.000485079
125.858	-16.0487	0.00051004
125.965	-16.0487	0.000535678
126.071	-16.0487	0.000560424
126.177	-16.0487	0.000584025
126.283	-16.0487	0.000608829
126.389	-16.0487	0.000643612
126.496	-16.0487	0.000715317
126.602	-16.0487	0.000797302
126.708	-16.0487	0.000877896
126.814	-16.0487	0.000962353
126.92	-16.0487	0.00103257
127.027	-16.0487	0.00110732
127.133	-16.0487	0.00116216
127.239	-16.0487	0.00120083
127.345	-16.0487	0.00123555
127.451	-16.0487	0.0012774
127.558	-16.0487	0.00134545
127.664	-16.0487	0.00142947
127.77	-16.0487	0.00150636
127.876	-16.0487	0.00159717
127.982	-16.0487	0.00172622
128.088	-16.0487	0.00187049
128.195	-16.0487	0.00199819
128.301	-16.0487	0.00209971
128.407	-16.0487	0.00215847
128.513	-16.0487	0.00216531
128.619	-16.0487	0.00212131
128.726	-16.0487	0.00203744
128.832	-16.0487	0.00190475
128.938	-16.0487	0.00174602
129.044	-16.0487	0.0015549
129.15	-16.0487	0.00137221
129.257	-16.0487	0.0012065
129.363	-16.0487	0.00110632
129.469	-16.0487	0.00101418
129.575	-16.0487	0.000934289
129.681	-16.0487	0.000860374
129.788	-16.0487	0.000808024
129.894	-16.0487	0.000772778
130	-16.0487	0.000734001
130.106	-16.0487	0.000690354
130.212	-16.0487	0.000646984
130.319	-16.0487	0.000603012
130.425	-16.0487	0.000554978
130.531	-16.0487	0.000514312
130.637	-16.0487	0.000477095
130.743	-16.0487	0.000440251
130.85	-16.0487	0.000406804
130.956	-16.0487	0.000374413
131.062	-16.0487	0.000342721
131.168	-16.0487	0.000309565
131.274	-16.0487	0.000272822
131.381	-16.0487	0.000239434
131.487	-16.0487	0.000206502
131.593	-16.0487	0.000177511
131.699	-16.0487	0.000152795
131.805	-16.0487	0.000129158
131.912	-16.0487	0.000107581
132.018	-16.0487	9.34207e-05
132.124	-16.0487	8.66739e-05
132.23	-16.0487	8.45193e-05
137.858	-16.0487	8.04566e-05
137.965	-16.0487	8.68106e-05
138.071	-16.0487	9.28501e-05
138.177	-16.0487	0.000106692
138.283	-16.0487	0.000125872
138.389	-16.0487	0.000149236
138.496	-16.0487	0.000175271
138.602	-16.0487	0.000207529
138.708	-16.0487	0.000238683
138.814	-16.0487	0.000265001
138.92	-16.0487	0.000291523
139.027	-16.0487	0.000319978
139.133	-16.0487	0.000360954
139.239	-16.0487	0.000419339
139.345	-16.0487	0.000492306
139.451	-16.0487	0.000558772
139.558	-16.0487	0.000611256
139.664	-16.0487	0.000653377
139.77	-16.0487	0.000672436
139.876	-16.0487	0.000683345
139.982	-16.0487	0.000660169
140.088	-16.0487	0.000598468
140.195	-16.0487	0.000533138
140.301	-16.0487	0.000474434
140.407	-16.0487	0.000431249
140.513	-16.0487	0.000391918
140.619	-16.0487	0.000356357
140.726	-16.0487	0.000328867
140.832	-16.0487	0.00030645
140.938	-16.0487	0.000282991
141.044	-16.0487	0.0002595
141.15	-16.0487	0.0002309
141.257	-16.0487	0.000199536
141.363	-16.0487	0.000172253
141.469	-16.0487	0.00015076
141.575	-16.0487	0.000136109
141.681	-16.0487	0.00012327
141.788	-16.0487	0.000117389
141.894	-16.0487	0.000115689
142	-16.0487	0.000116038
142.106	-16.0487	0.000117544
142.212	-16.0487	0.000118293
142.319	-16.0487	0.000118184
142.425	-16.0487	0.000118438
142.531	-16.0487	0.000120364
142.637	-16.0487	0.000122909
142.743	-16.0487	0.000126027
142.85	-16.0487	0.000130357
142.956	-16.0487	0.000135218
143.062	-16.0487	0.000142196
143.168	-16.0487	0.00015275
143.274	-16.0487	0.000162501
143.381	-16.0487	0.000170486
143.487	-16.0487	0.000178658
143.593	-16.0487	0.000185543
143.699	-16.0487	0.000192532
143.805	-16.0487	0.000199322
143.912	-16.0487	0.00020622
144.018	-16.0487	0.000213234
144.124	-16.0487	0.000217953
144.23	-16.0487	0.000220858
144.336	-16.0487	0.000221593
144.442	-16.0487	0.0002216
144.549	-16.0487	0.000221802
144.655	-16.0487	0.000223134
144.761	-16.0487	0.000225837
144.867	-16.0487	0.000229214
144.973	-16.0487	0.000237248
145.08	-16.0487	0.000245072
145.186	-16.0487	0.000257606
145.292	-16.0487	0.000269009
145.398	-16.0487	0.000277373
145.504	-16.0487	0.000285167
145.611	-16.0487	0.000289259
145.717	-16.0487	0.000290592
145.823	-16.0487	0.000287797
145.929	-16.0487	0.000280813
146.035	-16.0487	0.000274423
146.142	-16.0487	0.000269704
146.248	-16.0487	0.000263109
146.354	-16.0487	0.000257683
146.46	-16.0487	0.000248378
146.566	-16.0487	0.000237606
146.673	-16.0487	0.000223217
146.779	-16.0487	0.00020296
146.885	-16.0487	0.000181572
146.991	-16.0487	0.000160886
147.097	-16.0487	0.000144357
147.204	-16.0487	0.000127683
147.31	-16.0487	0.000109036
147.416	-16.0487	9.38447e-05
147.522	-16.0487	8.92285e-05
147.628	-16.0487	8.56141e-05
150.283	-16.0487	8.19941e-05
150.389	-16.0487	8.75096e-05
150.496	-16.0487	9.38617e-05
150.602	-16.0487	0.000104169
150.708	-16.0487	0.000116187
150.814	-16.0487	0.000128577
150.92	-16.0487	0.00013935
151.027	-16.0487	0.000148635
151.133	-16.0487	0.000160356
151.239	-16.0487	0.000188804
151.345	-16.0487	0.000260824
151.451	-16.0487	0.000345641
151.558	-16.0487	0.000417306
151.664	-16.0487	0.000473982
151.77	-16.0487	0.000518371
151.876	-16.0487	0.00054927
151.982	-16.0487	0.000562374
152.088	-16.0487	0.000561346
152.195	-16.0487	0.00054502
152.301	-16.0487	0.000513033
152.407	-16.0487	0.000473666
152.513	-16.0487	0.000406955
152.619	-16.0487	0.000328821
152.726	-16.0487	0.000249388
152.832	-16.0487	0.000197612
152.938	-16.0487	0.000179416
153.044	-16.0487	0.000176992
153.15	-16.0487	0.00018733
153.257	-16.0487	0.00020002
153.363	-16.0487	0.000208886
153.469	-16.0487	0.000210783
153.575	-16.0487	0.000205914
153.681	-16.0487	0.000194594
153.788	-16.0487	0.000183826
153.894	-16.0487	0.000172954
154	-16.0487	0.000157452
154.106	-16.0487	0.000138514
154.212	-16.0487	0.000119476
154.319	-16.0487	0.000100782
154.425	-16.0487	8.96612e-05
154.531	-16.0487	7.99865e-05
109.398	-16.1382	8.66729e-05
109.504	-16.1382	8.7882e-05
109.611	-16.1382	9.34592e-05
109.717	-16.1382	0.000103208
109.823	-16.1382	0.000114355
109.929	-16.1382	0.0001237
110.035	-16.1382	0.00013493
110.142	-16.1382	0.000162504
110.248	-16.1382	0.000236193
110.354	-16.1382	0.000311764
110.46	-16.1382	0.000385272
110.566	-16.1382	0.000440838
110.673	-16.1382	0.000478276
110.779	-16.1382	0.000502355
110.885	-16.1382	0.00050925
110.991	-16.1382	0.0004927
111.097	-16.1382	0.000470306
111.204	-16.1382	0.000446389
111.31	-16.1382	0.000427667
111.416	-16.1382	0.000414117
111.522	-16.1382	0.000424801
111.628	-16.1382	0.000450376
111.735	-16.1382	0.000475807
111.841	-16.1382	0.000496696
111.947	-16.1382	0.000508503
112.053	-16.1382	0.000515579
112.159	-16.1382	0.000516767
112.265	-16.1382	0.000512544
112.372	-16.1382	0.000504643
112.478	-16.1382	0.000500576
112.584	-16.1382	0.000493662
112.69	-16.1382	0.000482497
112.796	-16.1382	0.000467182
112.903	-16.1382	0.000448381
113.009	-16.1382	0.000424837
113.115	-16.1382	0.000397536
113.221	-16.1382	0.000361393
113.327	-16.1382	0.000328033
113.434	-16.1382	0.000286641
113.54	-16.1382	0.000244976
113.646	-16.1382	0.00020111
113.752	-16.1382	0.000161069
113.858	-16.1382	0.000139708
113.965	-16.1382	0.000127476
114.071	-16.1382	0.000117066
114.177	-16.1382	0.000106784
114.283	-16.1382	9.59205e-05
114.389	-16.1382	8.8932e-05
114.496	-16.1382	8.57695e-05
125.009	-16.1382	0.000755214
125.115	-16.1382	0.000698627
125.221	-16.1382	0.000635474
125.327	-16.1382	0.000564283
125.434	-16.1382	0.000489831
125.54	-16.1382	0.00045362
125.646	-16.1382	0.000465737
125.752	-16.1382	0.00049276
125.858	-16.1382	0.000520505
125.965	-16.1382	0.000545614
126.071	-16.1382	0.00057186
126.177	-16.1382	0.000594354
126.283	-16.1382	0.000623025
126.389	-16.1382	0.000666879
126.496	-16.1382	0.000729309
126.602	-16.1382	0.000812418
126.708	-16.1382	0.000908993
126.814	-16.1382	0.00100152
126.92	-16.1382	0.00108497
127.027	-16.1382	0.00115742
127.133	-16.1382	0.00121375
127.239	-16.1382	0.00125499
127.345	-16.1382	0.00129854
127.451	-16.1382	0.00134302
127.558	-16.1382	0.0013952
127.664	-16.1382	0.00146646
127.77	-16.1382	0.00154403
127.876	-16.1382	0.00163916
127.982	-16.1382	0.00178637
128.088	-16.1382	0.00195071
128.195	-16.1382	0.00209863
128.301	-16.1382	0.00220634
128.407	-16.1382	0.00226677
128.513	-16.1382	0.00227082
128.619	-16.1382	0.00221779
128.726	-16.1382	0.00211289
128.832	-16.1382	0.00197796
128.938	-16.1382	0.00180342
129.044	-16.1382	0.00161407
129.15	-16.1382	0.00143718
129.257	-16.1382	0.00125478
129.363	-16.1382	0.00111975
129.469	-16.1382	0.00100648
129.575	-16.1382	0.000923151
129.681	-16.1382	0.000849785
129.788	-16.1382	0.000803662
129.894	-16.1382	0.000771119
130	-16.1382	0.000733567
130.106	-16.1382	0.000690508
130.212	-16.1382	0.000646899
130.319	-16.1382	0.000599269
130.425	-16.1382	0.000544318
130.531	-16.1382	0.00049577
130.637	-16.1382	0.000450985
130.743	-16.1382	0.000412621
130.85	-16.1382	0.000380737
130.956	-16.1382	0.000349459
131.062	-16.1382	0.000318231
131.168	-16.1382	0.000285483
131.274	-16.1382	0.00025034
131.381	-16.1382	0.000219906
131.487	-16.1382	0.000190431
131.593	-16.1382	0.000162775
131.699	-16.1382	0.000138642
131.805	-16.1382	0.000117037
131.912	-16.1382	9.9121e-05
132.018	-16.1382	8.9223e-05
132.124	-16.1382	8.54349e-05
132.23	-16.1382	8.30829e-05
137.965	-16.1382	8.43059e-05
138.071	-16.1382	9.12302e-05
138.177	-16.1382	0.00010031
138.283	-16.1382	0.000115752
138.389	-16.1382	0.000137767
138.496	-16.1382	0.000160727
138.602	-16.1382	0.000190267
138.708	-16.1382	0.000220727
138.814	-16.1382	0.000247052
138.92	-16.1382	0.000273231
139.027	-16.1382	0.000295179
139.133	-16.1382	0.00031932
139.239	-16.1382	0.000352101
139.345	-16.1382	0.000399409
139.451	-16.1382	0.000444913
139.558	-16.1382	0.000479369
139.664	-16.1382	0.000503573
139.77	-16.1382	0.000511673
139.876	-16.1382	0.000516901
139.982	-16.1382	0.000498861
140.088	-16.1382	0.000454639
140.195	-16.1382	0.000420847
140.301	-16.1382	0.00039518
140.407	-16.1382	0.00037256
140.513	-16.1382	0.000349249
140.619	-16.1382	0.00032712
140.726	-16.1382	0.000308917
140.832	-16.1382	0.000286903
140.938	-16.1382	0.000266184
141.044	-16.1382	0.000240139
141.15	-16.1382	0.000211541
141.257	-16.1382	0.000180712
141.363	-16.1382	0.000154839
141.469	-16.1382	0.00013427
141.575	-16.1382	0.000121057
141.681	-16.1382	0.000112048
141.788	-16.1382	0.000109281
141.894	-16.1382	0.000109721
142	-16.1382	0.000111685
142.106	-16.1382	0.000113506
142.212	-16.1382	0.000114576
142.319	-16.1382	0.000114542
142.425	-16.1382	0.000115557
142.531	-16.1382	0.000117537
142.637	-16.1382	0.000119271
142.743	-16.1382	0.000121852
142.85	-16.1382	0.00012645
142.956	-16.1382	0.000133866
143.062	-16.1382	0.000144485
143.168	-16.1382	0.00015638
143.274	-16.1382	0.000167635
143.381	-16.1382	0.000176553
143.487	-16.1382	0.000185474
143.593	-16.1382	0.000192599
143.699	-16.1382	0.000201362
143.805	-16.1382	0.000209131
143.912	-16.1382	0.000216257
144.018	-16.1382	0.000224518
144.124	-16.1382	0.000231385
144.23	-16.1382	0.000236421
144.336	-16.1382	0.00023989
144.442	-16.1382	0.000240616
144.549	-16.1382	0.000245549
144.655	-16.1382	0.000248545
144.761	-16.1382	0.000251509
144.867	-16.1382	0.000258699
144.973	-16.1382	0.00026785
145.08	-16.1382	0.000281143
145.186	-16.1382	0.000294281
145.292	-16.1382	0.000310188
145.398	-16.1382	0.000319125
145.504	-16.1382	0.000329352
145.611	-16.1382	0.00033148
145.717	-16.1382	0.000332855
145.823	-16.1382	0.000330178
145.929	-16.1382	0.000322799
146.035	-16.1382	0.000314233
146.142	-16.1382	0.00030606
146.248	-16.1382	0.000300463
146.354	-16.1382	0.000292878
146.46	-16.1382	0.000283259
146.566	-16.1382	0.000272242
146.673	-16.1382	0.000257942
146.779	-16.1382	0.000240992
146.885	-16.1382	0.000219612
146.991	-16.1382	0.000194847
147.097	-16.1382	0.000173268
147.204	-16.1382	0.000152184
147.31	-16.1382	0.00012837
147.416	-16.1382	0.00010925
147.522	-16.1382	9.53528e-05
147.628	-16.1382	8.98372e-05
147.735	-16.1382	8.51917e-05
150.389	-16.1382	8.45682e-05
150.496	-16.1382	9.02471e-05
150.602	-16.1382	9.71644e-05
150.708	-16.1382	0.000106284
150.814	-16.1382	0.000119075
150.92	-16.1382	0.00012982
151.027	-16.1382	0.00013889
151.133	-16.1382	0.000148483
151.239	-16.1382	0.000165618
151.345	-16.1382	0.000214306
151.451	-16.1382	0.000284809
151.558	-16.1382	0.00035635
151.664	-16.1382	0.000413698
151.77	-16.1382	0.000455033
151.876	-16.1382	0.000483693
151.982	-16.1382	0.000497919
152.088	-16.1382	0.000502145
152.195	-16.1382	0.000485354
152.301	-16.1382	0.000450592
152.407	-16.1382	0.0004088
152.513	-16.1382	0.000344735
152.619	-16.1382	0.000272242
152.726	-16.1382	0.000213328
152.832	-16.1382	0.000184323
152.938	-16.1382	0.000178303
153.044	-16.1382	0.000187907
153.15	-16.1382	0.000204765
153.257	-16.1382	0.000220683
153.363	-16.1382	0.000228041
153.469	-16.1382	0.000229893
153.575	-16.1382	0.000225153
153.681	-16.1382	0.000215569
153.788	-16.1382	0.000205611
153.894	-16.1382	0.000195633
154	-16.1382	0.00018121
154.106	-16.1382	0.000161169
154.212	-16.1382	0.000138372
154.319	-16.1382	0.000111148
154.425	-16.1382	9.35027e-05
154.531	-16.1382	8.72884e-05
109.398	-16.2276	8.66839e-05
109.504	-16.2276	9.06855e-05
109.611	-16.2276	9.76463e-05
109.717	-16.2276	0.000108671
109.823	-16.2276	0.000119026
109.929	-16.2276	0.000129017
110.035	-16.2276	0.000151024
110.142	-16.2276	0.000204376
110.248	-16.2276	0.000290999
110.354	-16.2276	0.000382074
110.46	-16.2276	0.00044716
110.566	-16.2276	0.000502713
110.673	-16.2276	0.000545281
110.779	-16.2276	0.00056472
110.885	-16.2276	0.000569244
110.991	-16.2276	0.000561362
111.097	-16.2276	0.000531148
111.204	-16.2276	0.000491748
111.31	-16.2276	0.000456347
111.416	-16.2276	0.000420156
111.522	-16.2276	0.000405307
111.628	-16.2276	0.00041786
111.735	-16.2276	0.000438307
111.841	-16.2276	0.000461989
111.947	-16.2276	0.000474483
112.053	-16.2276	0.000481197
112.159	-16.2276	0.000482004
112.265	-16.2276	0.000478688
112.372	-16.2276	0.000470089
112.478	-16.2276	0.000460806
112.584	-16.2276	0.000456852
112.69	-16.2276	0.000445593
112.796	-16.2276	0.000430263
112.903	-16.2276	0.000411433
113.009	-16.2276	0.000388429
113.115	-16.2276	0.000357837
113.221	-16.2276	0.000321816
113.327	-16.2276	0.000285385
113.434	-16.2276	0.000248261
113.54	-16.2276	0.000207819
113.646	-16.2276	0.000167853
113.752	-16.2276	0.000142635
113.858	-16.2276	0.000130481
113.965	-16.2276	0.00012035
114.071	-16.2276	0.000110586
114.177	-16.2276	0.000100347
114.283	-16.2276	9.22499e-05
114.389	-16.2276	8.751e-05
114.496	-16.2276	8.41895e-05
117.363	-16.2276	0.00011773
117.469	-16.2276	0.000114191
117.575	-16.2276	0.000133
117.681	-16.2276	0.000172897
117.788	-16.2276	0.000176952
124.903	-16.2276	0.000983792
125.009	-16.2276	0.00074354
125.115	-16.2276	0.000686978
125.221	-16.2276	0.000623247
125.327	-16.2276	0.00055061
125.434	-16.2276	0.0004795
125.54	-16.2276	0.000453006
125.646	-16.2276	0.000469027
125.752	-16.2276	0.000496922
125.858	-16.2276	0.0005278
125.965	-16.2276	0.00055796
126.071	-16.2276	0.000587963
126.177	-16.2276	0.000618198
126.283	-16.2276	0.00065213
126.389	-16.2276	0.000705737
126.496	-16.2276	0.000762605
126.602	-16.2276	0.000847935
126.708	-16.2276	0.000952566
126.814	-16.2276	0.00105924
126.92	-16.2276	0.00115514
127.027	-16.2276	0.00122524
127.133	-16.2276	0.0012769
127.239	-16.2276	0.00131885
127.345	-16.2276	0.00136649
127.451	-16.2276	0.00140553
127.558	-16.2276	0.00143868
127.664	-16.2276	0.00148803
127.77	-16.2276	0.00156982
127.876	-16.2276	0.00167418
127.982	-16.2276	0.00183262
128.088	-16.2276	0.0020152
128.195	-16.2276	0.00216793
128.301	-16.2276	0.00227733
128.407	-16.2276	0.00233633
128.513	-16.2276	0.0023346
128.619	-16.2276	0.00227634
128.726	-16.2276	0.00216425
128.832	-16.2276	0.00201874
128.938	-16.2276	0.00183821
129.044	-16.2276	0.00165456
129.15	-16.2276	0.00149956
129.257	-16.2276	0.00131116
129.363	-16.2276	0.00114441
129.469	-16.2276	0.00100876
129.575	-16.2276	0.000918188
129.681	-16.2276	0.000843543
129.788	-16.2276	0.000798099
129.894	-16.2276	0.000764465
130	-16.2276	0.000726522
130.106	-16.2276	0.000685087
130.212	-16.2276	0.000642518
130.319	-16.2276	0.000590676
130.425	-16.2276	0.000535417
130.531	-16.2276	0.00048279
130.637	-16.2276	0.000431075
130.743	-16.2276	0.000388937
130.85	-16.2276	0.000354381
130.956	-16.2276	0.000322818
131.062	-16.2276	0.000292606
131.168	-16.2276	0.000262041
131.274	-16.2276	0.00023038
131.381	-16.2276	0.000203144
131.487	-16.2276	0.000175876
131.593	-16.2276	0.00014972
131.699	-16.2276	0.000127745
131.805	-16.2276	0.000109032
131.912	-16.2276	9.52291e-05
132.018	-16.2276	8.77273e-05
132.124	-16.2276	8.44027e-05
132.23	-16.2276	8.15149e-05
137.965	-16.2276	8.18445e-05
138.071	-16.2276	8.78468e-05
138.177	-16.2276	9.49377e-05
138.283	-16.2276	0.000108106
138.389	-16.2276	0.000125832
138.496	-16.2276	0.000146446
138.602	-16.2276	0.000172255
138.708	-16.2276	0.0002011
138.814	-16.2276	0.000227089
138.92	-16.2276	0.000253314
139.027	-16.2276	0.000274871
139.133	-16.2276	0.000293773
139.239	-16.2276	0.00031317
139.345	-16.2276	0.000340514
139.451	-16.2276	0.000365008
139.558	-16.2276	0.000382437
139.664	-16.2276	0.000394695
139.77	-16.2276	0.000401466
139.876	-16.2276	0.000401762
139.982	-16.2276	0.000394349
140.088	-16.2276	0.000379124
140.195	-16.2276	0.000361817
140.301	-16.2276	0.000348636
140.407	-16.2276	0.000335888
140.513	-16.2276	0.0003202
140.619	-16.2276	0.000303327
140.726	-16.2276	0.000287188
140.832	-16.2276	0.000267246
140.938	-16.2276	0.000244721
141.044	-16.2276	0.00021867
141.15	-16.2276	0.000190306
141.257	-16.2276	0.000161202
141.363	-16.2276	0.000138092
141.469	-16.2276	0.000118862
141.575	-16.2276	0.000107158
141.681	-16.2276	0.000102049
141.788	-16.2276	0.000101463
141.894	-16.2276	0.00010386
142	-16.2276	0.000106536
142.106	-16.2276	0.0001085
142.212	-16.2276	0.000109443
142.319	-16.2276	0.000110094
142.425	-16.2276	0.000111733
142.531	-16.2276	0.0001141
142.637	-16.2276	0.000116412
142.743	-16.2276	0.000119927
142.85	-16.2276	0.000126306
142.956	-16.2276	0.000136323
143.062	-16.2276	0.000148173
143.168	-16.2276	0.000161165
143.274	-16.2276	0.000172812
143.381	-16.2276	0.00018191
143.487	-16.2276	0.00019119
143.593	-16.2276	0.000199385
143.699	-16.2276	0.000208524
143.805	-16.2276	0.000217517
143.912	-16.2276	0.000225737
144.018	-16.2276	0.000239203
144.124	-16.2276	0.000253965
144.23	-16.2276	0.000268732
144.336	-16.2276	0.000282769
144.442	-16.2276	0.000289695
144.549	-16.2276	0.000299579
144.655	-16.2276	0.000303208
144.761	-16.2276	0.000303687
144.867	-16.2276	0.000305108
144.973	-16.2276	0.000309561
145.08	-16.2276	0.000321962
145.186	-16.2276	0.000333665
145.292	-16.2276	0.000349416
145.398	-16.2276	0.000357498
145.504	-16.2276	0.000368456
145.611	-16.2276	0.00037263
145.717	-16.2276	0.000372976
145.823	-16.2276	0.000369735
145.929	-16.2276	0.000364295
146.035	-16.2276	0.00035338
146.142	-16.2276	0.000344592
146.248	-16.2276	0.000335985
146.354	-16.2276	0.000327289
146.46	-16.2276	0.000316786
146.566	-16.2276	0.000304946
146.673	-16.2276	0.00029035
146.779	-16.2276	0.000274451
146.885	-16.2276	0.000251868
146.991	-16.2276	0.000226218
147.097	-16.2276	0.000202471
147.204	-16.2276	0.000177765
147.31	-16.2276	0.000155101
147.416	-16.2276	0.000129918
147.522	-16.2276	0.000108832
147.628	-16.2276	9.53615e-05
147.735	-16.2276	8.86854e-05
147.841	-16.2276	8.3977e-05
150.496	-16.2276	8.75041e-05
150.602	-16.2276	9.04963e-05
150.708	-16.2276	9.80617e-05
150.814	-16.2276	0.000109103
150.92	-16.2276	0.000120638
151.027	-16.2276	0.000130603
151.133	-16.2276	0.000139939
151.239	-16.2276	0.000150834
151.345	-16.2276	0.00016977
151.451	-16.2276	0.000223238
151.558	-16.2276	0.000284138
151.664	-16.2276	0.000341501
151.77	-16.2276	0.00038305
151.876	-16.2276	0.000411862
151.982	-16.2276	0.000426118
152.088	-16.2276	0.000429643
152.195	-16.2276	0.000408037
152.301	-16.2276	0.000376834
152.407	-16.2276	0.000334357
152.513	-16.2276	0.000278832
152.619	-16.2276	0.000221502
152.726	-16.2276	0.000187447
152.832	-16.2276	0.000177233
152.938	-16.2276	0.000182496
153.044	-16.2276	0.000199621
153.15	-16.2276	0.000218293
153.257	-16.2276	0.000234569
153.363	-16.2276	0.000242922
153.469	-16.2276	0.000244199
153.575	-16.2276	0.000239572
153.681	-16.2276	0.000232131
153.788	-16.2276	0.00022386
153.894	-16.2276	0.000214121
154	-16.2276	0.000199551
154.106	-16.2276	0.000181938
154.212	-16.2276	0.0001558
154.319	-16.2276	0.000124917
154.425	-16.2276	0.000103725
154.531	-16.2276	9.46074e-05
109.292	-16.3171	8.14288e-05
109.398	-16.3171	8.48102e-05
109.504	-16.3171	9.14202e-05
109.611	-16.3171	0.00010095
109.717	-16.3171	0.000112376
109.823	-16.3171	0.000123076
109.929	-16.3171	0.000137306
110.035	-16.3171	0.00017296
110.142	-16.3171	0.000255276
110.248	-16.3171	0.000348946
110.354	-16.3171	0.000433899
110.46	-16.3171	0.00050214
110.566	-16.3171	0.000559272
110.673	-16.3171	0.000598307
110.779	-16.3171	0.000618157
110.885	-16.3171	0.000622798
110.991	-16.3171	0.000612144
111.097	-16.3171	0.00058517
111.204	-16.3171	0.000537028
111.31	-16.3171	0.000485596
111.416	-16.3171	0.000433116
111.522	-16.3171	0.000386068
111.628	-16.3171	0.000380528
111.735	-16.3171	0.000399037
111.841	-16.3171	0.000420132
111.947	-16.3171	0.000433907
112.053	-16.3171	0.000443047
112.159	-16.3171	0.000444151
112.265	-16.3171	0.000439578
112.372	-16.3171	0.000431511
112.478	-16.3171	0.00042275
112.584	-16.3171	0.000416689
112.69	-16.3171	0.000407203
112.796	-16.3171	0.000389755
112.903	-16.3171	0.000369528
113.009	-16.3171	0.000345928
113.115	-16.3171	0.000312466
113.221	-16.3171	0.00027861
113.327	-16.3171	0.000244721
113.434	-16.3171	0.000206689
113.54	-16.3171	0.000171814
113.646	-16.3171	0.000145447
113.752	-16.3171	0.000130506
113.858	-16.3171	0.000122093
113.965	-16.3171	0.000113435
114.071	-16.3171	0.000103803
114.177	-16.3171	9.49758e-05
114.283	-16.3171	8.86835e-05
114.389	-16.3171	8.60989e-05
117.257	-16.3171	0.000148377
117.363	-16.3171	0.000155137
117.469	-16.3171	0.000143215
117.575	-16.3171	0.000153242
117.681	-16.3171	0.000183658
117.788	-16.3171	0.00019208
124.903	-16.3171	0.000945693
125.009	-16.3171	0.000719636
125.115	-16.3171	0.000667369
125.221	-16.3171	0.00060378
125.327	-16.3171	0.000532164
125.434	-16.3171	0.000466959
125.54	-16.3171	0.00045255
125.646	-16.3171	0.000471236
125.752	-16.3171	0.000503565
125.858	-16.3171	0.000541447
125.965	-16.3171	0.000581821
126.071	-16.3171	0.000622645
126.177	-16.3171	0.000666506
126.283	-16.3171	0.000713358
126.389	-16.3171	0.000779798
126.496	-16.3171	0.000847602
126.602	-16.3171	0.000934759
126.708	-16.3171	0.00104098
126.814	-16.3171	0.00113252
126.92	-16.3171	0.00122463
127.027	-16.3171	0.00129163
127.133	-16.3171	0.00134301
127.239	-16.3171	0.00139395
127.345	-16.3171	0.00143956
127.451	-16.3171	0.00146946
127.558	-16.3171	0.00148347
127.664	-16.3171	0.00151216
127.77	-16.3171	0.00158468
127.876	-16.3171	0.00169848
127.982	-16.3171	0.00186675
128.088	-16.3171	0.00204911
128.195	-16.3171	0.00219585
128.301	-16.3171	0.00230416
128.407	-16.3171	0.00236016
128.513	-16.3171	0.0023516
128.619	-16.3171	0.00229332
128.726	-16.3171	0.00217867
128.832	-16.3171	0.0020304
128.938	-16.3171	0.00185302
129.044	-16.3171	0.00168947
129.15	-16.3171	0.00152507
129.257	-16.3171	0.00135893
129.363	-16.3171	0.00117693
129.469	-16.3171	0.00102048
129.575	-16.3171	0.000911224
129.681	-16.3171	0.000834674
129.788	-16.3171	0.000785889
129.894	-16.3171	0.000752824
130	-16.3171	0.000713226
130.106	-16.3171	0.000673775
130.212	-16.3171	0.000632127
130.319	-16.3171	0.000579077
130.425	-16.3171	0.000525566
130.531	-16.3171	0.000473541
130.637	-16.3171	0.000420333
130.743	-16.3171	0.000369731
130.85	-16.3171	0.000329489
130.956	-16.3171	0.000296296
131.062	-16.3171	0.00026825
131.168	-16.3171	0.000241496
131.274	-16.3171	0.000213778
131.381	-16.3171	0.000189087
131.487	-16.3171	0.000163659
131.593	-16.3171	0.000140513
131.699	-16.3171	0.000121697
131.805	-16.3171	0.000105782
131.912	-16.3171	9.35198e-05
132.018	-16.3171	8.83527e-05
132.124	-16.3171	8.48132e-05
138.071	-16.3171	8.53922e-05
138.177	-16.3171	9.3264e-05
138.283	-16.3171	0.000101739
138.389	-16.3171	0.00011494
138.496	-16.3171	0.000132379
138.602	-16.3171	0.000153896
138.708	-16.3171	0.000180521
138.814	-16.3171	0.000205378
138.92	-16.3171	0.000231388
139.027	-16.3171	0.000252957
139.133	-16.3171	0.000272153
139.239	-16.3171	0.000288379
139.345	-16.3171	0.000305736
139.451	-16.3171	0.000321202
139.558	-16.3171	0.000331152
139.664	-16.3171	0.000338592
139.77	-16.3171	0.000343433
139.876	-16.3171	0.000345336
139.982	-16.3171	0.000343564
140.088	-16.3171	0.000338171
140.195	-16.3171	0.000328824
140.301	-16.3171	0.000319814
140.407	-16.3171	0.000309358
140.513	-16.3171	0.000295376
140.619	-16.3171	0.000281082
140.726	-16.3171	0.000263908
140.832	-16.3171	0.000243914
140.938	-16.3171	0.000221155
141.044	-16.3171	0.000195071
141.15	-16.3171	0.000169585
141.257	-16.3171	0.000141876
141.363	-16.3171	0.000122222
141.469	-16.3171	0.000106034
141.575	-16.3171	9.67429e-05
141.681	-16.3171	9.37087e-05
141.788	-16.3171	9.43546e-05
141.894	-16.3171	9.75192e-05
142	-16.3171	0.000100485
142.106	-16.3171	0.000102451
142.212	-16.3171	0.000103564
142.319	-16.3171	0.000104965
142.425	-16.3171	0.000107227
142.531	-16.3171	0.000109897
142.637	-16.3171	0.000113126
142.743	-16.3171	0.000117838
142.85	-16.3171	0.000125577
142.956	-16.3171	0.000138583
143.062	-16.3171	0.000151524
143.168	-16.3171	0.000164873
143.274	-16.3171	0.000176767
143.381	-16.3171	0.000186032
143.487	-16.3171	0.000195866
143.593	-16.3171	0.000205123
143.699	-16.3171	0.000215211
143.805	-16.3171	0.000225363
143.912	-16.3171	0.000239
144.018	-16.3171	0.00026172
144.124	-16.3171	0.000299639
144.23	-16.3171	0.000332717
144.336	-16.3171	0.000363561
144.442	-16.3171	0.000381398
144.549	-16.3171	0.000389604
144.655	-16.3171	0.000392834
144.761	-16.3171	0.000389512
144.867	-16.3171	0.000381973
144.973	-16.3171	0.000371636
145.08	-16.3171	0.000368638
145.186	-16.3171	0.0003722
145.292	-16.3171	0.00038637
145.398	-16.3171	0.000393979
145.504	-16.3171	0.000405154
145.611	-16.3171	0.000409956
145.717	-16.3171	0.000411271
145.823	-16.3171	0.000408719
145.929	-16.3171	0.000403675
146.035	-16.3171	0.000393822
146.142	-16.3171	0.000381668
146.248	-16.3171	0.000370382
146.354	-16.3171	0.000361071
146.46	-16.3171	0.000349268
146.566	-16.3171	0.000336275
146.673	-16.3171	0.00032082
146.779	-16.3171	0.000303198
146.885	-16.3171	0.000281838
146.991	-16.3171	0.000258773
147.097	-16.3171	0.000231503
147.204	-16.3171	0.000204504
147.31	-16.3171	0.000181267
147.416	-16.3171	0.000156164
147.522	-16.3171	0.000128643
147.628	-16.3171	0.000105898
147.735	-16.3171	9.34438e-05
147.841	-16.3171	8.683e-05
147.947	-16.3171	8.27127e-05
150.496	-16.3171	8.41409e-05
150.602	-16.3171	8.7958e-05
150.708	-16.3171	9.29638e-05
150.814	-16.3171	0.000101902
150.92	-16.3171	0.000111503
151.027	-16.3171	0.000122208
151.133	-16.3171	0.000130897
151.239	-16.3171	0.000139995
151.345	-16.3171	0.000151417
151.451	-16.3171	0.000173594
151.558	-16.3171	0.000211105
151.664	-16.3171	0.000259019
151.77	-16.3171	0.000298483
151.876	-16.3171	0.000328126
151.982	-16.3171	0.000340766
152.088	-16.3171	0.000346568
152.195	-16.3171	0.000321736
152.301	-16.3171	0.000294606
152.407	-16.3171	0.000257795
152.513	-16.3171	0.000221545
152.619	-16.3171	0.000189233
152.726	-16.3171	0.000177436
152.832	-16.3171	0.000174839
152.938	-16.3171	0.000185841
153.044	-16.3171	0.000208191
153.15	-16.3171	0.000229872
153.257	-16.3171	0.000244503
153.363	-16.3171	0.000252414
153.469	-16.3171	0.000253895
153.575	-16.3171	0.000250509
153.681	-16.3171	0.000244164
153.788	-16.3171	0.000238098
153.894	-16.3171	0.000228399
154	-16.3171	0.000214853
154.106	-16.3171	0.000195718
154.212	-16.3171	0.000170519
154.319	-16.3171	0.000140721
154.425	-16.3171	0.000112088
154.531	-16.3171	9.13681e-05
154.637	-16.3171	8.08286e-05
109.292	-16.4066	8.20183e-05
109.398	-16.4066	8.50254e-05
109.504	-16.4066	9.23051e-05
109.611	-16.4066	0.000104342
109.717	-16.4066	0.000115511
109.823	-16.4066	0.000126193
109.929	-16.4066	0.000143927
110.035	-16.4066	0.000202635
110.142	-16.4066	0.000299131
110.248	-16.4066	0.00038938
110.354	-16.4066	0.000475486
110.46	-16.4066	0.000544016
110.566	-16.4066	0.000599015
110.673	-16.4066	0.000634365
110.779	-16.4066	0.000656143
110.885	-16.4066	0.00066199
110.991	-16.4066	0.000652621
111.097	-16.4066	0.000627669
111.204	-16.4066	0.000578981
111.31	-16.4066	0.000518538
111.416	-16.4066	0.000452572
111.522	-16.4066	0.000380877
111.628	-16.4066	0.000348087
111.735	-16.4066	0.000357076
111.841	-16.4066	0.000374072
111.947	-16.4066	0.000391795
112.053	-16.4066	0.000400658
112.159	-16.4066	0.000402475
112.265	-16.4066	0.000401322
112.372	-16.4066	0.000394595
112.478	-16.4066	0.00038451
112.584	-16.4066	0.000375553
112.69	-16.4066	0.000368644
112.796	-16.4066	0.000353068
112.903	-16.4066	0.000333393
113.009	-16.4066	0.000306553
113.115	-16.4066	0.000273102
113.221	-16.4066	0.000238111
113.327	-16.4066	0.000202791
113.434	-16.4066	0.000169479
113.54	-16.4066	0.00014659
113.646	-16.4066	0.000133156
113.752	-16.4066	0.000123506
113.858	-16.4066	0.000114777
113.965	-16.4066	0.00010557
114.071	-16.4066	9.57201e-05
114.177	-16.4066	8.94873e-05
114.283	-16.4066	8.67861e-05
114.389	-16.4066	8.41975e-05
117.15	-16.4066	0.000169171
117.257	-16.4066	0.000188292
117.363	-16.4066	0.000192763
117.469	-16.4066	0.000195147
117.575	-16.4066	0.000203432
124.796	-16.4066	0.00221442
124.903	-16.4066	0.000893654
125.009	-16.4066	0.000689043
125.115	-16.4066	0.000637848
125.221	-16.4066	0.000575112
125.327	-16.4066	0.000502886
125.434	-16.4066	0.000459292
125.54	-16.4066	0.000456602
125.646	-16.4066	0.000478952
125.752	-16.4066	0.000519494
125.858	-16.4066	0.000570431
125.965	-16.4066	0.000624008
126.071	-16.4066	0.000673799
126.177	-16.4066	0.000728324
126.283	-16.4066	0.000802217
126.389	-16.4066	0.000886441
126.496	-16.4066	0.000978606
126.602	-16.4066	0.00106709
126.708	-16.4066	0.00116075
126.814	-16.4066	0.00123039
126.92	-16.4066	0.00129609
127.027	-16.4066	0.00135073
127.133	-16.4066	0.00139853
127.239	-16.4066	0.0014548
127.345	-16.4066	0.00150389
127.451	-16.4066	0.00152672
127.558	-16.4066	0.00152939
127.664	-16.4066	0.00154795
127.77	-16.4066	0.00160699
127.876	-16.4066	0.00172024
127.982	-16.4066	0.00187871
128.088	-16.4066	0.002045
128.195	-16.4066	0.00218293
128.301	-16.4066	0.0022886
128.407	-16.4066	0.00234371
128.513	-16.4066	0.00233239
128.619	-16.4066	0.00227403
128.726	-16.4066	0.00216347
128.832	-16.4066	0.00201934
128.938	-16.4066	0.00186257
129.044	-16.4066	0.00171213
129.15	-16.4066	0.00155051
129.257	-16.4066	0.00138708
129.363	-16.4066	0.00119361
129.469	-16.4066	0.00102343
129.575	-16.4066	0.000899603
129.681	-16.4066	0.000821207
129.788	-16.4066	0.000775995
129.894	-16.4066	0.000740172
130	-16.4066	0.000701438
130.106	-16.4066	0.000662854
130.212	-16.4066	0.000622082
130.319	-16.4066	0.000570171
130.425	-16.4066	0.000518003
130.531	-16.4066	0.000466566
130.637	-16.4066	0.000413435
130.743	-16.4066	0.000358648
130.85	-16.4066	0.000310736
130.956	-16.4066	0.000273788
131.062	-16.4066	0.00024728
131.168	-16.4066	0.000224311
131.274	-16.4066	0.000200047
131.381	-16.4066	0.000177672
131.487	-16.4066	0.000154833
131.593	-16.4066	0.000135199
131.699	-16.4066	0.000119244
131.805	-16.4066	0.000104737
131.912	-16.4066	9.30742e-05
132.018	-16.4066	8.83096e-05
132.124	-16.4066	8.6388e-05
138.177	-16.4066	8.9494e-05
138.283	-16.4066	9.46566e-05
138.389	-16.4066	0.000104654
138.496	-16.4066	0.000118106
138.602	-16.4066	0.000137672
138.708	-16.4066	0.000159626
138.814	-16.4066	0.00018262
138.92	-16.4066	0.000207428
139.027	-16.4066	0.000229021
139.133	-16.4066	0.000248244
139.239	-16.4066	0.000264411
139.345	-16.4066	0.000280062
139.451	-16.4066	0.000292956
139.558	-16.4066	0.000302111
139.664	-16.4066	0.000308803
139.77	-16.4066	0.000313194
139.876	-16.4066	0.00031526
139.982	-16.4066	0.00031444
140.088	-16.4066	0.00031124
140.195	-16.4066	0.000303645
140.301	-16.4066	0.000294827
140.407	-16.4066	0.000284566
140.513	-16.4066	0.000270464
140.619	-16.4066	0.000257435
140.726	-16.4066	0.000239802
140.832	-16.4066	0.000218485
140.938	-16.4066	0.000195447
141.044	-16.4066	0.000169702
141.15	-16.4066	0.000146369
141.257	-16.4066	0.000123228
141.363	-16.4066	0.00010818
141.469	-16.4066	9.62917e-05
141.575	-16.4066	8.9908e-05
141.681	-16.4066	8.75534e-05
141.788	-16.4066	8.82388e-05
141.894	-16.4066	9.09728e-05
142	-16.4066	9.34386e-05
142.106	-16.4066	9.53782e-05
142.212	-16.4066	9.68653e-05
142.319	-16.4066	9.91665e-05
142.425	-16.4066	0.000101974
142.531	-16.4066	0.000105203
142.637	-16.4066	0.000109626
142.743	-16.4066	0.000115678
142.85	-16.4066	0.000125514
142.956	-16.4066	0.000139556
143.062	-16.4066	0.000153788
143.168	-16.4066	0.000167363
143.274	-16.4066	0.00017825
143.381	-16.4066	0.000188949
143.487	-16.4066	0.000198618
143.593	-16.4066	0.000210183
143.699	-16.4066	0.000221212
143.805	-16.4066	0.000237308
143.912	-16.4066	0.000265273
144.018	-16.4066	0.000312609
144.124	-16.4066	0.000368966
144.23	-16.4066	0.000415558
144.336	-16.4066	0.000449689
144.442	-16.4066	0.000478243
144.549	-16.4066	0.000490589
144.655	-16.4066	0.000496452
144.761	-16.4066	0.000492366
144.867	-16.4066	0.000480523
144.973	-16.4066	0.000458037
145.08	-16.4066	0.000434073
145.186	-16.4066	0.000419856
145.292	-16.4066	0.00042011
145.398	-16.4066	0.000428833
145.504	-16.4066	0.000440214
145.611	-16.4066	0.000444677
145.717	-16.4066	0.00045055
145.823	-16.4066	0.000448513
145.929	-16.4066	0.000444973
146.035	-16.4066	0.000435817
146.142	-16.4066	0.00042508
146.248	-16.4066	0.000409727
146.354	-16.4066	0.000397129
146.46	-16.4066	0.000384028
146.566	-16.4066	0.000366491
146.673	-16.4066	0.000349905
146.779	-16.4066	0.0003313
146.885	-16.4066	0.000312137
146.991	-16.4066	0.000286529
147.097	-16.4066	0.00025909
147.204	-16.4066	0.000232671
147.31	-16.4066	0.000205622
147.416	-16.4066	0.000178577
147.522	-16.4066	0.00015066
147.628	-16.4066	0.000122545
147.735	-16.4066	0.00010182
147.841	-16.4066	9.07483e-05
147.947	-16.4066	8.42132e-05
148.053	-16.4066	8.07624e-05
150.602	-16.4066	8.63719e-05
150.708	-16.4066	8.99886e-05
150.814	-16.4066	9.41064e-05
150.92	-16.4066	0.000102308
151.027	-16.4066	0.000112923
151.133	-16.4066	0.000121561
151.239	-16.4066	0.000130641
151.345	-16.4066	0.000138789
151.451	-16.4066	0.00014831
151.558	-16.4066	0.000165019
151.664	-16.4066	0.000188179
151.77	-16.4066	0.000214446
151.876	-16.4066	0.00023763
151.982	-16.4066	0.000246569
152.088	-16.4066	0.000251849
152.195	-16.4066	0.000238306
152.301	-16.4066	0.000219819
152.407	-16.4066	0.000199255
152.513	-16.4066	0.000183476
152.619	-16.4066	0.000174652
152.726	-16.4066	0.000170309
152.832	-16.4066	0.000172402
152.938	-16.4066	0.000188407
153.044	-16.4066	0.000212311
153.15	-16.4066	0.000235049
153.257	-16.4066	0.000248541
153.363	-16.4066	0.000257241
153.469	-16.4066	0.000258771
153.575	-16.4066	0.000256456
153.681	-16.4066	0.000253408
153.788	-16.4066	0.000249121
153.894	-16.4066	0.000240247
154	-16.4066	0.000225415
154.106	-16.4066	0.00020547
154.212	-16.4066	0.00018067
154.319	-16.4066	0.000151356
154.425	-16.4066	0.000115437
154.531	-16.4066	9.29658e-05
154.637	-16.4066	8.43927e-05
109.292	-16.496	8.26717e-05
109.398	-16.496	8.53289e-05
109.504	-16.496	9.32717e-05
109.611	-16.496	0.000106624
109.717	-16.496	0.000118022
109.823	-16.496	0.000128228
109.929	-16.496	0.000150779
110.035	-16.496	0.000231614
110.142	-16.496	0.000334596
110.248	-16.496	0.000426334
110.354	-16.496	0.000499989
110.46	-16.496	0.000573377
110.566	-16.496	0.000622888
110.673	-16.496	0.000660484
110.779	-16.496	0.000683534
110.885	-16.496	0.000690021
110.991	-16.496	0.000678945
111.097	-16.496	0.000651602
111.204	-16.496	0.000608906
111.31	-16.496	0.000547156
111.416	-16.496	0.000469356
111.522	-16.496	0.000382935
111.628	-16.496	0.000323896
111.735	-16.496	0.000317223
111.841	-16.496	0.000331313
111.947	-16.496	0.000347904
112.053	-16.496	0.000359146
112.159	-16.496	0.000365052
112.265	-16.496	0.000362713
112.372	-16.496	0.000356311
112.478	-16.496	0.000346278
112.584	-16.496	0.000337726
112.69	-16.496	0.000329975
112.796	-16.496	0.000316479
112.903	-16.496	0.000295305
113.009	-16.496	0.000266148
113.115	-16.496	0.000237627
113.221	-16.496	0.0002037
113.327	-16.496	0.000172673
113.434	-16.496	0.000152546
113.54	-16.496	0.000137699
113.646	-16.496	0.000127107
113.752	-16.496	0.000117122
113.858	-16.496	0.000106771
113.965	-16.496	9.70737e-05
114.071	-16.496	8.96923e-05
114.177	-16.496	8.46626e-05
114.283	-16.496	8.37513e-05
117.044	-16.496	0.000169896
117.15	-16.496	0.000196036
117.257	-16.496	0.000223221
117.363	-16.496	0.000278832
117.469	-16.496	0.000335167
124.796	-16.496	0.00187752
124.903	-16.496	0.000816988
125.009	-16.496	0.000647582
125.115	-16.496	0.000597017
125.221	-16.496	0.000537655
125.327	-16.496	0.000480157
125.434	-16.496	0.000461276
125.54	-16.496	0.000469321
125.646	-16.496	0.000501246
125.752	-16.496	0.00055273
125.858	-16.496	0.000613059
125.965	-16.496	0.000674598
126.071	-16.496	0.000731407
126.177	-16.496	0.000797732
126.283	-16.496	0.000894043
126.389	-16.496	0.00100561
126.496	-16.496	0.00111443
126.602	-16.496	0.00120502
126.708	-16.496	0.00128918
126.814	-16.496	0.00134945
126.92	-16.496	0.00138679
127.027	-16.496	0.00141321
127.133	-16.496	0.00144809
127.239	-16.496	0.00150197
127.345	-16.496	0.00155295
127.451	-16.496	0.00157804
127.558	-16.496	0.00158293
127.664	-16.496	0.0015958
127.77	-16.496	0.00164663
127.876	-16.496	0.00175368
127.982	-16.496	0.00187925
128.088	-16.496	0.00201957
128.195	-16.496	0.00214144
128.301	-16.496	0.00224063
128.407	-16.496	0.00229484
128.513	-16.496	0.00228717
128.619	-16.496	0.00223102
128.726	-16.496	0.00213491
128.832	-16.496	0.00201009
128.938	-16.496	0.00185712
129.044	-16.496	0.00171558
129.15	-16.496	0.00155477
129.257	-16.496	0.00139645
129.363	-16.496	0.00120122
129.469	-16.496	0.00102125
129.575	-16.496	0.000884902
129.681	-16.496	0.000807666
129.788	-16.496	0.000766185
129.894	-16.496	0.000728841
130	-16.496	0.000691522
130.106	-16.496	0.000656755
130.212	-16.496	0.000616964
130.319	-16.496	0.000566121
130.425	-16.496	0.000514407
130.531	-16.496	0.000461154
130.637	-16.496	0.000407248
130.743	-16.496	0.000351739
130.85	-16.496	0.000302882
130.956	-16.496	0.000259517
131.062	-16.496	0.000233499
131.168	-16.496	0.000212273
131.274	-16.496	0.000189912
131.381	-16.496	0.000169699
131.487	-16.496	0.000149494
131.593	-16.496	0.000132152
131.699	-16.496	0.000117755
131.805	-16.496	0.000104006
131.912	-16.496	9.22629e-05
132.018	-16.496	8.73591e-05
132.124	-16.496	8.49046e-05
138.177	-16.496	8.22228e-05
138.283	-16.496	8.73607e-05
138.389	-16.496	9.59518e-05
138.496	-16.496	0.000106757
138.602	-16.496	0.000120369
138.708	-16.496	0.000139639
138.814	-16.496	0.000160395
138.92	-16.496	0.000180684
139.027	-16.496	0.000203037
139.133	-16.496	0.000222302
139.239	-16.496	0.000238424
139.345	-16.496	0.000254165
139.451	-16.496	0.000267085
139.558	-16.496	0.00027707
139.664	-16.496	0.000282811
139.77	-16.496	0.000287206
139.876	-16.496	0.000288052
139.982	-16.496	0.000288492
140.088	-16.496	0.000285273
140.195	-16.496	0.000277483
140.301	-16.496	0.000268652
140.407	-16.496	0.000258238
140.513	-16.496	0.000245702
140.619	-16.496	0.000230403
140.726	-16.496	0.000212445
140.832	-16.496	0.00019092
140.938	-16.496	0.000167833
141.044	-16.496	0.000143931
141.15	-16.496	0.000124183
141.257	-16.496	0.000108202
141.363	-16.496	9.67502e-05
141.469	-16.496	9.0069e-05
141.575	-16.496	8.60013e-05
141.681	-16.496	8.42605e-05
141.788	-16.496	8.38767e-05
141.894	-16.496	8.61306e-05
142	-16.496	8.74563e-05
142.106	-16.496	8.90846e-05
142.212	-16.496	9.02681e-05
142.319	-16.496	9.24775e-05
142.425	-16.496	9.60941e-05
142.531	-16.496	0.000100211
142.637	-16.496	0.000105336
142.743	-16.496	0.0001132
142.85	-16.496	0.00012541
142.956	-16.496	0.000141161
143.062	-16.496	0.000156215
143.168	-16.496	0.000169634
143.274	-16.496	0.000181702
143.381	-16.496	0.000192989
143.487	-16.496	0.000203597
143.593	-16.496	0.000216183
143.699	-16.496	0.000231487
143.805	-16.496	0.000260816
143.912	-16.496	0.000313995
144.018	-16.496	0.000379579
144.124	-16.496	0.000447342
144.23	-16.496	0.000498058
144.336	-16.496	0.000534392
144.442	-16.496	0.000565631
144.549	-16.496	0.000583825
144.655	-16.496	0.000592738
144.761	-16.496	0.000593979
144.867	-16.496	0.000585536
144.973	-16.496	0.000553229
145.08	-16.496	0.000514715
145.186	-16.496	0.00047773
145.292	-16.496	0.000459035
145.398	-16.496	0.000462685
145.504	-16.496	0.000473428
145.611	-16.496	0.000480636
145.717	-16.496	0.000495259
145.823	-16.496	0.000501444
145.929	-16.496	0.000507312
146.035	-16.496	0.000504351
146.142	-16.496	0.000499818
146.248	-16.496	0.000481926
146.354	-16.496	0.000456929
146.46	-16.496	0.000433349
146.566	-16.496	0.000406618
146.673	-16.496	0.000378446
146.779	-16.496	0.000358261
146.885	-16.496	0.000337763
146.991	-16.496	0.000311953
147.097	-16.496	0.000287754
147.204	-16.496	0.000257664
147.31	-16.496	0.000229352
147.416	-16.496	0.000200139
147.522	-16.496	0.000172381
147.628	-16.496	0.000142212
147.735	-16.496	0.000114608
147.841	-16.496	9.78042e-05
147.947	-16.496	8.6803e-05
148.053	-16.496	8.23505e-05
148.159	-16.496	7.98483e-05
150.708	-16.496	8.61185e-05
150.814	-16.496	8.69345e-05
150.92	-16.496	9.36171e-05
151.027	-16.496	0.000101828
151.133	-16.496	0.000111308
151.239	-16.496	0.000120321
151.345	-16.496	0.00012821
151.451	-16.496	0.00013458
151.558	-16.496	0.000142249
151.664	-16.496	0.000152314
151.77	-16.496	0.000163113
151.876	-16.496	0.0001717
151.982	-16.496	0.000175902
152.088	-16.496	0.000174023
152.195	-16.496	0.000176654
152.301	-16.496	0.000175707
152.407	-16.496	0.000173396
152.513	-16.496	0.000169366
152.619	-16.496	0.000167394
152.726	-16.496	0.000164751
152.832	-16.496	0.000169065
152.938	-16.496	0.000187715
153.044	-16.496	0.000213496
153.15	-16.496	0.000234759
153.257	-16.496	0.000249213
153.363	-16.496	0.00025745
153.469	-16.496	0.000259492
153.575	-16.496	0.000258978
153.681	-16.496	0.000258204
153.788	-16.496	0.000254897
153.894	-16.496	0.000247042
154	-16.496	0.000232461
154.106	-16.496	0.000211961
154.212	-16.496	0.000187536
154.319	-16.496	0.000157519
154.425	-16.496	0.000120798
154.531	-16.496	9.60549e-05
154.637	-16.496	8.78618e-05
109.292	-16.5855	8.23285e-05
109.398	-16.5855	8.53186e-05
109.504	-16.5855	9.51819e-05
109.611	-16.5855	0.000107638
109.717	-16.5855	0.000119606
109.823	-16.5855	0.00013042
109.929	-16.5855	0.000159815
110.035	-16.5855	0.000249693
110.142	-16.5855	0.00035635
110.248	-16.5855	0.000444031
110.354	-16.5855	0.000518308
110.46	-16.5855	0.000584274
110.566	-16.5855	0.000637477
110.673	-16.5855	0.000675135
110.779	-16.5855	0.00069732
110.885	-16.5855	0.000705193
110.991	-16.5855	0.000693692
111.097	-16.5855	0.000666356
111.204	-16.5855	0.00062339
111.31	-16.5855	0.000563596
111.416	-16.5855	0.000480726
111.522	-16.5855	0.000388847
111.628	-16.5855	0.000313014
111.735	-16.5855	0.000289867
111.841	-16.5855	0.000295056
111.947	-16.5855	0.000306398
112.053	-16.5855	0.000318246
112.159	-16.5855	0.000322903
112.265	-16.5855	0.000323092
112.372	-16.5855	0.000316185
112.478	-16.5855	0.000305779
112.584	-16.5855	0.000296016
112.69	-16.5855	0.000288416
112.796	-16.5855	0.000273738
112.903	-16.5855	0.000253674
113.009	-16.5855	0.000231389
113.115	-16.5855	0.000209059
113.221	-16.5855	0.00018597
113.327	-16.5855	0.000165742
113.434	-16.5855	0.000149123
113.54	-16.5855	0.000135757
113.646	-16.5855	0.000122716
113.752	-16.5855	0.00011069
113.858	-16.5855	0.000100763
113.965	-16.5855	9.15252e-05
114.071	-16.5855	8.57482e-05
114.177	-16.5855	8.32419e-05
114.283	-16.5855	8.06114e-05
116.938	-16.5855	0.000191925
117.044	-16.5855	0.000202905
117.15	-16.5855	0.000235536
117.257	-16.5855	0.000325793
124.69	-16.5855	0.00413302
124.796	-16.5855	0.00155688
124.903	-16.5855	0.000734386
125.009	-16.5855	0.000595094
125.115	-16.5855	0.000547918
125.221	-16.5855	0.000496952
125.327	-16.5855	0.000470618
125.434	-16.5855	0.000472112
125.54	-16.5855	0.000491907
125.646	-16.5855	0.00053549
125.752	-16.5855	0.000595937
125.858	-16.5855	0.000659663
125.965	-16.5855	0.000725121
126.071	-16.5855	0.000795644
126.177	-16.5855	0.000879125
126.283	-16.5855	0.000991863
126.389	-16.5855	0.00111286
126.496	-16.5855	0.00123385
126.602	-16.5855	0.00133631
126.708	-16.5855	0.00140542
126.814	-16.5855	0.00145888
126.92	-16.5855	0.00147952
127.027	-16.5855	0.00148998
127.133	-16.5855	0.00151013
127.239	-16.5855	0.00154952
127.345	-16.5855	0.00159633
127.451	-16.5855	0.00162287
127.558	-16.5855	0.00163344
127.664	-16.5855	0.00164764
127.77	-16.5855	0.00169217
127.876	-16.5855	0.00178951
127.982	-16.5855	0.00189704
128.088	-16.5855	0.00200318
128.195	-16.5855	0.00210307
128.301	-16.5855	0.00219836
128.407	-16.5855	0.00224078
128.513	-16.5855	0.00223769
128.619	-16.5855	0.00219076
128.726	-16.5855	0.00210714
128.832	-16.5855	0.00198589
128.938	-16.5855	0.00184033
129.044	-16.5855	0.00169542
129.15	-16.5855	0.00153874
129.257	-16.5855	0.00138641
129.363	-16.5855	0.00119289
129.469	-16.5855	0.00101151
129.575	-16.5855	0.000867136
129.681	-16.5855	0.000798638
129.788	-16.5855	0.000759016
129.894	-16.5855	0.00072263
130	-16.5855	0.000688321
130.106	-16.5855	0.000655483
130.212	-16.5855	0.000616888
130.319	-16.5855	0.000567075
130.425	-16.5855	0.000515916
130.531	-16.5855	0.000462777
130.637	-16.5855	0.000410425
130.743	-16.5855	0.000356522
130.85	-16.5855	0.000306352
130.956	-16.5855	0.000258814
131.062	-16.5855	0.000229498
131.168	-16.5855	0.000206578
131.274	-16.5855	0.000184663
131.381	-16.5855	0.000164105
131.487	-16.5855	0.000145078
131.593	-16.5855	0.000129719
131.699	-16.5855	0.000116783
131.805	-16.5855	0.000103464
131.912	-16.5855	9.16637e-05
132.018	-16.5855	8.67379e-05
132.124	-16.5855	8.43067e-05
138.283	-16.5855	8.33821e-05
138.389	-16.5855	9.02494e-05
138.496	-16.5855	9.77555e-05
138.602	-16.5855	0.000107268
138.708	-16.5855	0.000121903
138.814	-16.5855	0.000139623
138.92	-16.5855	0.000156713
139.027	-16.5855	0.000176334
139.133	-16.5855	0.00019449
139.239	-16.5855	0.000210384
139.345	-16.5855	0.000226222
139.451	-16.5855	0.00023918
139.558	-16.5855	0.000248298
139.664	-16.5855	0.000254793
139.77	-16.5855	0.000259196
139.876	-16.5855	0.000259981
139.982	-16.5855	0.000260528
140.088	-16.5855	0.000257293
140.195	-16.5855	0.000249299
140.301	-16.5855	0.000240459
140.407	-16.5855	0.000230029
140.513	-16.5855	0.000217357
140.619	-16.5855	0.000201527
140.726	-16.5855	0.000183014
140.832	-16.5855	0.000162975
140.938	-16.5855	0.000139555
141.044	-16.5855	0.000121552
141.15	-16.5855	0.000105642
141.257	-16.5855	9.55324e-05
141.363	-16.5855	8.92594e-05
141.469	-16.5855	8.55738e-05
141.575	-16.5855	8.33134e-05
141.681	-16.5855	8.25357e-05
