0
150.389	-31.8837	0.000673767
150.496	-31.8837	0.000541776
150.602	-31.8837	0.000523474
150.708	-31.8837	0.000526489
150.814	-31.8837	0.000530037
150.92	-31.8837	0.000527819
151.027	-31.8837	0.000499794
151.133	-31.8837	0.00045261
151.239	-31.8837	0.000381385
151.345	-31.8837	0.000322373
151.451	-31.8837	0.000298193
151.558	-31.8837	0.000261661
151.664	-31.8837	0.000253251
151.77	-31.8837	0.000274629
151.876	-31.8837	0.000321454
151.982	-31.8837	0.000372831
152.088	-31.8837	0.000410331
152.195	-31.8837	0.000440799
152.301	-31.8837	0.000438727
148.265	-31.9732	0.000330001
148.372	-31.9732	0.000492882
148.478	-31.9732	0.000659511
148.584	-31.9732	0.000818529
148.69	-31.9732	0.00107405
148.796	-31.9732	0.00141078
148.903	-31.9732	0.00187878
149.009	-31.9732	0.00238512
149.115	-31.9732	0.00281789
149.221	-31.9732	0.00303574
149.327	-31.9732	0.00309007
149.434	-31.9732	0.00313504
149.54	-31.9732	0.00313222
149.646	-31.9732	0.00305358
149.752	-31.9732	0.00287674
149.858	-31.9732	0.00271196
149.965	-31.9732	0.00242477
150.071	-31.9732	0.00202656
150.177	-31.9732	0.00163297
150.283	-31.9732	0.00121196
150.389	-31.9732	0.000882798
150.496	-31.9732	0.000739863
150.602	-31.9732	0.000726565
150.708	-31.9732	0.000731981
150.814	-31.9732	0.000722107
150.92	-31.9732	0.000723111
151.027	-31.9732	0.000690894
151.133	-31.9732	0.000604952
151.239	-31.9732	0.000506621
151.345	-31.9732	0.000412895
151.451	-31.9732	0.000319251
151.558	-31.9732	0.000269747
151.664	-31.9732	0.000286907
151.77	-31.9732	0.000366375
151.876	-31.9732	0.000486503
151.982	-31.9732	0.000601648
152.088	-31.9732	0.000650854
152.195	-31.9732	0.000692491
152.301	-31.9732	0.000680668
152.407	-31.9732	0.000636466
152.513	-31.9732	0.000541121
152.619	-31.9732	0.000442354
152.726	-31.9732	0.000325645
152.832	-31.9732	0.000270301
148.053	-32.0626	0.000243856
148.159	-32.0626	0.000348343
148.265	-32.0626	0.000490358
148.372	-32.0626	0.0006667
148.478	-32.0626	0.000910602
148.584	-32.0626	0.00112856
148.69	-32.0626	0.00143164
148.796	-32.0626	0.00191218
148.903	-32.0626	0.00247494
149.009	-32.0626	0.00295219
149.115	-32.0626	0.00332878
149.221	-32.0626	0.00350041
149.327	-32.0626	0.00351603
149.434	-32.0626	0.00349898
149.54	-32.0626	0.00345684
149.646	-32.0626	0.00336314
149.752	-32.0626	0.00322057
149.858	-32.0626	0.00298858
149.965	-32.0626	0.00270122
150.071	-32.0626	0.0023179
150.177	-32.0626	0.00187982
150.283	-32.0626	0.00148137
150.389	-32.0626	0.00115674
150.496	-32.0626	0.000996186
150.602	-32.0626	0.00100367
150.708	-32.0626	0.00100877
150.814	-32.0626	0.00103212
150.92	-32.0626	0.00103078
151.027	-32.0626	0.000991729
151.133	-32.0626	0.000890733
151.239	-32.0626	0.000770956
151.345	-32.0626	0.000625264
151.451	-32.0626	0.000473753
151.558	-32.0626	0.000416848
151.664	-32.0626	0.000496822
151.77	-32.0626	0.000632315
151.876	-32.0626	0.000824915
151.982	-32.0626	0.00100152
152.088	-32.0626	0.00104478
152.195	-32.0626	0.00104951
152.301	-32.0626	0.00106043
152.407	-32.0626	0.000947008
152.513	-32.0626	0.00082499
152.619	-32.0626	0.000682747
152.726	-32.0626	0.000496818
152.832	-32.0626	0.000325141
152.938	-32.0626	0.000245572
147.947	-32.1521	0.000214806
148.053	-32.1521	0.000336392
148.159	-32.1521	0.00049162
148.265	-32.1521	0.000666692
148.372	-32.1521	0.000899893
148.478	-32.1521	0.0011906
148.584	-32.1521	0.00143307
148.69	-32.1521	0.00177569
148.796	-32.1521	0.00229545
148.903	-32.1521	0.00291504
149.009	-32.1521	0.00335135
149.115	-32.1521	0.00368167
149.221	-32.1521	0.00380773
149.327	-32.1521	0.00380973
149.434	-32.1521	0.00375153
149.54	-32.1521	0.00365986
149.646	-32.1521	0.00354345
149.752	-32.1521	0.00338715
149.858	-32.1521	0.00313073
149.965	-32.1521	0.00277183
150.071	-32.1521	0.00240982
150.177	-32.1521	0.0020425
150.283	-32.1521	0.00166983
150.389	-32.1521	0.00137638
150.496	-32.1521	0.00123869
150.602	-32.1521	0.0012667
150.708	-32.1521	0.00131284
150.814	-32.1521	0.00134776
150.92	-32.1521	0.00137099
151.027	-32.1521	0.00133336
151.133	-32.1521	0.00121136
151.239	-32.1521	0.00108086
151.345	-32.1521	0.000921876
151.451	-32.1521	0.000806488
151.558	-32.1521	0.000784135
151.664	-32.1521	0.000895473
151.77	-32.1521	0.0011006
151.876	-32.1521	0.00132778
151.982	-32.1521	0.00147459
152.088	-32.1521	0.00151915
152.195	-32.1521	0.00153126
152.301	-32.1521	0.00150496
152.407	-32.1521	0.00136086
152.513	-32.1521	0.00121473
152.619	-32.1521	0.00102678
152.726	-32.1521	0.000711991
152.832	-32.1521	0.000437278
152.938	-32.1521	0.000269511
147.735	-32.2416	0.000125288
147.841	-32.2416	0.000182075
147.947	-32.2416	0.000290566
148.053	-32.2416	0.000469677
148.159	-32.2416	0.00068259
148.265	-32.2416	0.00090242
148.372	-32.2416	0.00116653
148.478	-32.2416	0.00147489
148.584	-32.2416	0.00174459
148.69	-32.2416	0.00208421
148.796	-32.2416	0.00257576
148.903	-32.2416	0.00314922
149.009	-32.2416	0.00359922
149.115	-32.2416	0.0039414
149.221	-32.2416	0.00408009
149.327	-32.2416	0.00408584
149.434	-32.2416	0.00397613
149.54	-32.2416	0.00384309
149.646	-32.2416	0.00367149
149.752	-32.2416	0.00344407
149.858	-32.2416	0.00314328
149.965	-32.2416	0.00279415
150.071	-32.2416	0.00243409
150.177	-32.2416	0.00208924
150.283	-32.2416	0.0017857
150.389	-32.2416	0.00152273
150.496	-32.2416	0.0014005
150.602	-32.2416	0.00145544
150.708	-32.2416	0.00156378
150.814	-32.2416	0.00163329
150.92	-32.2416	0.00167705
151.027	-32.2416	0.00166504
151.133	-32.2416	0.00155617
151.239	-32.2416	0.00144884
151.345	-32.2416	0.00134035
151.451	-32.2416	0.00124041
151.558	-32.2416	0.00129127
151.664	-32.2416	0.0014653
151.77	-32.2416	0.00157269
151.876	-32.2416	0.0018033
151.982	-32.2416	0.00195078
152.088	-32.2416	0.00200793
152.195	-32.2416	0.00201001
152.301	-32.2416	0.00198612
152.407	-32.2416	0.00183759
152.513	-32.2416	0.00164157
152.619	-32.2416	0.00130981
152.726	-32.2416	0.000907342
152.832	-32.2416	0.000565348
147.628	-32.331	0.000146041
147.735	-32.331	0.000165614
147.841	-32.331	0.000246277
147.947	-32.331	0.000399781
148.053	-32.331	0.000613467
148.159	-32.331	0.00086741
148.265	-32.331	0.00114586
148.372	-32.331	0.00144806
148.478	-32.331	0.00176134
148.584	-32.331	0.00203144
148.69	-32.331	0.00238191
148.796	-32.331	0.00283372
148.903	-32.331	0.00335895
149.009	-32.331	0.00387955
149.115	-32.331	0.0041933
149.221	-32.331	0.0043238
149.327	-32.331	0.00429842
149.434	-32.331	0.00416644
149.54	-32.331	0.00399576
149.646	-32.331	0.003784
149.752	-32.331	0.00349078
149.858	-32.331	0.00313425
149.965	-32.331	0.00275427
150.071	-32.331	0.00238921
150.177	-32.331	0.00209293
150.283	-32.331	0.00182215
150.389	-32.331	0.00159392
150.496	-32.331	0.00152826
150.602	-32.331	0.00164191
150.708	-32.331	0.00177088
150.814	-32.331	0.00193537
150.92	-32.331	0.00206357
151.027	-32.331	0.00215537
151.133	-32.331	0.00214814
151.239	-32.331	0.00210175
151.345	-32.331	0.00193909
151.451	-32.331	0.00198877
151.558	-32.331	0.00212435
151.664	-32.331	0.00216269
151.77	-32.331	0.00211801
151.876	-32.331	0.00219981
151.982	-32.331	0.00235233
152.088	-32.331	0.00237342
152.195	-32.331	0.00238562
152.301	-32.331	0.00235382
152.407	-32.331	0.00219754
152.513	-32.331	0.00191718
152.619	-32.331	0.00150429
152.726	-32.331	0.0010481
152.832	-32.331	0.000630537
147.416	-32.4205	0.000154543
147.522	-32.4205	0.000192312
147.628	-32.4205	0.000208256
147.735	-32.4205	0.000243214
147.841	-32.4205	0.000328301
147.947	-32.4205	0.000524528
148.053	-32.4205	0.000773095
148.159	-32.4205	0.0010526
148.265	-32.4205	0.00133219
148.372	-32.4205	0.00166203
148.478	-32.4205	0.00200338
148.584	-32.4205	0.00231685
148.69	-32.4205	0.00269989
148.796	-32.4205	0.0031437
148.903	-32.4205	0.0036336
149.009	-32.4205	0.00406993
149.115	-32.4205	0.00438695
149.221	-32.4205	0.00448862
149.327	-32.4205	0.00443309
149.434	-32.4205	0.00426294
149.54	-32.4205	0.00406635
149.646	-32.4205	0.0038195
149.752	-32.4205	0.00349164
149.858	-32.4205	0.00303828
149.965	-32.4205	0.00263559
150.071	-32.4205	0.00227861
150.177	-32.4205	0.0019992
150.283	-32.4205	0.00176787
150.389	-32.4205	0.00161086
150.496	-32.4205	0.00161718
150.602	-32.4205	0.00180902
150.708	-32.4205	0.00204901
150.814	-32.4205	0.0023357
150.92	-32.4205	0.0026211
151.027	-32.4205	0.00291297
151.133	-32.4205	0.00308409
151.239	-32.4205	0.00330958
151.345	-32.4205	0.0033341
151.451	-32.4205	0.00359275
151.558	-32.4205	0.0036045
151.664	-32.4205	0.00340618
151.77	-32.4205	0.00319247
151.876	-32.4205	0.00292782
151.982	-32.4205	0.00279415
152.088	-32.4205	0.00272288
152.195	-32.4205	0.00262764
152.301	-32.4205	0.00255186
152.407	-32.4205	0.0024058
152.513	-32.4205	0.00202889
152.619	-32.4205	0.00156037
152.726	-32.4205	0.0010465
152.832	-32.4205	0.000653958
147.31	-32.5099	0.000160134
147.416	-32.5099	0.000197418
147.522	-32.5099	0.000229406
147.628	-32.5099	0.000272985
147.735	-32.5099	0.000339228
147.841	-32.5099	0.000458757
147.947	-32.5099	0.000665917
148.053	-32.5099	0.000920338
148.159	-32.5099	0.00118808
148.265	-32.5099	0.00150373
148.372	-32.5099	0.00184162
148.478	-32.5099	0.00220606
148.584	-32.5099	0.00262387
148.69	-32.5099	0.0030139
148.796	-32.5099	0.00343673
148.903	-32.5099	0.00383484
149.009	-32.5099	0.00420563
149.115	-32.5099	0.00443582
149.221	-32.5099	0.00453171
149.327	-32.5099	0.0044741
149.434	-32.5099	0.00429891
149.54	-32.5099	0.00403176
149.646	-32.5099	0.00374729
149.752	-32.5099	0.00339507
149.858	-32.5099	0.00292434
149.965	-32.5099	0.00242307
150.071	-32.5099	0.00205931
150.177	-32.5099	0.0018061
150.283	-32.5099	0.00162857
150.389	-32.5099	0.00158079
150.496	-32.5099	0.00168175
150.602	-32.5099	0.00199755
150.708	-32.5099	0.00244744
150.814	-32.5099	0.00291166
150.92	-32.5099	0.00345521
151.027	-32.5099	0.00393006
151.133	-32.5099	0.0044387
151.239	-32.5099	0.00501899
151.345	-32.5099	0.00536618
151.451	-32.5099	0.00554423
151.558	-32.5099	0.00557479
151.664	-32.5099	0.00538036
151.77	-32.5099	0.00485733
151.876	-32.5099	0.00427305
151.982	-32.5099	0.00371676
152.088	-32.5099	0.00323975
152.195	-32.5099	0.00293537
152.301	-32.5099	0.00270502
152.407	-32.5099	0.00247155
152.513	-32.5099	0.00206115
152.619	-32.5099	0.00156881
152.726	-32.5099	0.00105526
147.097	-32.5994	0.000143871
147.204	-32.5994	0.00017301
147.31	-32.5994	0.000223056
147.416	-32.5994	0.000287363
147.522	-32.5994	0.000343586
147.628	-32.5994	0.000406794
147.735	-32.5994	0.00049393
147.841	-32.5994	0.000662534
147.947	-32.5994	0.000848034
148.053	-32.5994	0.00106176
148.159	-32.5994	0.00129381
148.265	-32.5994	0.00159523
148.372	-32.5994	0.00197698
148.478	-32.5994	0.0024133
148.584	-32.5994	0.00286651
148.69	-32.5994	0.00329749
148.796	-32.5994	0.00363245
148.903	-32.5994	0.00395822
149.009	-32.5994	0.00422724
149.115	-32.5994	0.00439071
149.221	-32.5994	0.00445457
149.327	-32.5994	0.00440175
149.434	-32.5994	0.00421362
149.54	-32.5994	0.00394407
149.646	-32.5994	0.00357983
149.752	-32.5994	0.00318222
149.858	-32.5994	0.00265361
149.965	-32.5994	0.00216234
150.071	-32.5994	0.00174221
150.177	-32.5994	0.00153989
150.283	-32.5994	0.0014864
150.389	-32.5994	0.00155768
150.496	-32.5994	0.00179779
150.602	-32.5994	0.00232042
150.708	-32.5994	0.00299099
150.814	-32.5994	0.00363977
150.92	-32.5994	0.00432625
151.027	-32.5994	0.00517501
151.133	-32.5994	0.00586776
151.239	-32.5994	0.00659145
151.345	-32.5994	0.00710833
151.451	-32.5994	0.00730688
151.558	-32.5994	0.00740794
151.664	-32.5994	0.00709013
151.77	-32.5994	0.00637474
151.876	-32.5994	0.00575194
151.982	-32.5994	0.00491936
152.088	-32.5994	0.00408885
152.195	-32.5994	0.00335084
152.301	-32.5994	0.00285396
152.407	-32.5994	0.00240645
152.513	-32.5994	0.0019265
152.619	-32.5994	0.00146575
152.726	-32.5994	0.00101966
146.991	-32.6889	0.00017233
147.097	-32.6889	0.000218711
147.204	-32.6889	0.00027882
147.31	-32.6889	0.000352989
147.416	-32.6889	0.000450892
147.522	-32.6889	0.000534692
147.628	-32.6889	0.000622891
147.735	-32.6889	0.000719892
147.841	-32.6889	0.000847845
147.947	-32.6889	0.00101853
148.053	-32.6889	0.00118424
148.159	-32.6889	0.00135721
148.265	-32.6889	0.00166335
148.372	-32.6889	0.00211606
148.478	-32.6889	0.00260799
148.584	-32.6889	0.00307905
148.69	-32.6889	0.00348594
148.796	-32.6889	0.00377206
148.903	-32.6889	0.00400136
149.009	-32.6889	0.00418273
149.115	-32.6889	0.00425745
149.221	-32.6889	0.0042662
149.327	-32.6889	0.00419505
149.434	-32.6889	0.00400006
149.54	-32.6889	0.00371832
149.646	-32.6889	0.00334458
149.752	-32.6889	0.00285739
149.858	-32.6889	0.00234195
149.965	-32.6889	0.00183536
150.071	-32.6889	0.00146697
150.177	-32.6889	0.00131093
150.283	-32.6889	0.00137936
150.389	-32.6889	0.00159072
150.496	-32.6889	0.00204887
150.602	-32.6889	0.00277118
150.708	-32.6889	0.00351779
150.814	-32.6889	0.0043888
150.92	-32.6889	0.00533941
151.027	-32.6889	0.00635934
151.133	-32.6889	0.00724245
151.239	-32.6889	0.00795451
151.345	-32.6889	0.00838109
151.451	-32.6889	0.00870563
151.558	-32.6889	0.00871068
151.664	-32.6889	0.00837935
151.77	-32.6889	0.00773996
151.876	-32.6889	0.0069392
151.982	-32.6889	0.00592417
152.088	-32.6889	0.00485462
152.195	-32.6889	0.00394419
152.301	-32.6889	0.00303668
152.407	-32.6889	0.00243158
152.513	-32.6889	0.00188726
152.619	-32.6889	0.00136412
152.726	-32.6889	0.000932647
146.779	-32.7783	0.000152308
146.885	-32.7783	0.000195377
146.991	-32.7783	0.000258005
147.097	-32.7783	0.0003452
147.204	-32.7783	0.000425797
147.31	-32.7783	0.000520162
147.416	-32.7783	0.000644359
147.522	-32.7783	0.000725761
147.628	-32.7783	0.000835369
147.735	-32.7783	0.000924893
147.841	-32.7783	0.00103036
147.947	-32.7783	0.00115839
148.053	-32.7783	0.00134586
148.159	-32.7783	0.00156479
148.265	-32.7783	0.00188852
148.372	-32.7783	0.00229195
148.478	-32.7783	0.00282845
148.584	-32.7783	0.00331353
148.69	-32.7783	0.00364301
148.796	-32.7783	0.0038601
148.903	-32.7783	0.00398555
149.009	-32.7783	0.00406795
149.115	-32.7783	0.00408767
149.221	-32.7783	0.00402605
149.327	-32.7783	0.00391098
149.434	-32.7783	0.00371533
149.54	-32.7783	0.00339679
149.646	-32.7783	0.00300097
149.752	-32.7783	0.00253941
149.858	-32.7783	0.00204697
149.965	-32.7783	0.00160091
150.071	-32.7783	0.0013149
150.177	-32.7783	0.00126757
150.283	-32.7783	0.00142793
150.389	-32.7783	0.00176366
150.496	-32.7783	0.00230878
150.602	-32.7783	0.00321222
150.708	-32.7783	0.00411853
150.814	-32.7783	0.00510752
150.92	-32.7783	0.00639201
151.027	-32.7783	0.00750528
151.133	-32.7783	0.00835368
151.239	-32.7783	0.00903059
151.345	-32.7783	0.00938369
151.451	-32.7783	0.00955637
151.558	-32.7783	0.00962284
151.664	-32.7783	0.00931361
151.77	-32.7783	0.00864489
151.876	-32.7783	0.0078102
151.982	-32.7783	0.00677777
152.088	-32.7783	0.00556815
152.195	-32.7783	0.00439733
152.301	-32.7783	0.00335857
152.407	-32.7783	0.00239871
152.513	-32.7783	0.00174753
152.619	-32.7783	0.0012263
152.726	-32.7783	0.000793173
146.673	-32.8678	0.000148444
146.779	-32.8678	0.00020157
146.885	-32.8678	0.000283883
146.991	-32.8678	0.000369573
147.097	-32.8678	0.000477296
147.204	-32.8678	0.000579795
147.31	-32.8678	0.000693313
147.416	-32.8678	0.000832023
147.522	-32.8678	0.000920596
147.628	-32.8678	0.00102791
147.735	-32.8678	0.00111511
147.841	-32.8678	0.00122711
147.947	-32.8678	0.00138003
148.053	-32.8678	0.00160978
148.159	-32.8678	0.00187396
148.265	-32.8678	0.00220517
148.372	-32.8678	0.0025871
148.478	-32.8678	0.00313823
148.584	-32.8678	0.00357398
148.69	-32.8678	0.00384106
148.796	-32.8678	0.00395186
148.903	-32.8678	0.00396457
149.009	-32.8678	0.00395542
149.115	-32.8678	0.00388315
149.221	-32.8678	0.00380959
149.327	-32.8678	0.00364845
149.434	-32.8678	0.00344689
149.54	-32.8678	0.00312534
149.646	-32.8678	0.00269551
149.752	-32.8678	0.00226419
149.858	-32.8678	0.00187852
149.965	-32.8678	0.00158865
150.071	-32.8678	0.00145194
150.177	-32.8678	0.00145568
150.283	-32.8678	0.00164213
150.389	-32.8678	0.00202273
150.496	-32.8678	0.00268862
150.602	-32.8678	0.00359103
150.708	-32.8678	0.00454285
150.814	-32.8678	0.00583073
150.92	-32.8678	0.00718855
151.027	-32.8678	0.00837968
151.133	-32.8678	0.00919033
151.239	-32.8678	0.00975392
151.345	-32.8678	0.0100027
151.451	-32.8678	0.0100928
151.558	-32.8678	0.0100742
151.664	-32.8678	0.00980436
151.77	-32.8678	0.00925977
151.876	-32.8678	0.00851355
151.982	-32.8678	0.00723867
152.088	-32.8678	0.00593097
152.195	-32.8678	0.00471759
152.301	-32.8678	0.00344052
152.407	-32.8678	0.00231197
152.513	-32.8678	0.00148825
152.619	-32.8678	0.000989603
146.46	-32.9573	0.00013144
146.566	-32.9573	0.000137369
146.673	-32.9573	0.000181863
146.779	-32.9573	0.000258837
146.885	-32.9573	0.000376111
146.991	-32.9573	0.000491597
147.097	-32.9573	0.000619878
147.204	-32.9573	0.000749798
147.31	-32.9573	0.000869544
147.416	-32.9573	0.00100592
147.522	-32.9573	0.00107859
147.628	-32.9573	0.00115485
147.735	-32.9573	0.00129807
147.841	-32.9573	0.00147921
147.947	-32.9573	0.00169463
148.053	-32.9573	0.00193999
148.159	-32.9573	0.00224296
148.265	-32.9573	0.00255683
148.372	-32.9573	0.00290757
148.478	-32.9573	0.00334663
148.584	-32.9573	0.0037614
148.69	-32.9573	0.0040047
148.796	-32.9573	0.00407882
148.903	-32.9573	0.00402504
149.009	-32.9573	0.00388551
149.115	-32.9573	0.00374689
149.221	-32.9573	0.00360946
149.327	-32.9573	0.0034367
149.434	-32.9573	0.00323503
149.54	-32.9573	0.00297194
149.646	-32.9573	0.00263454
149.752	-32.9573	0.00228427
149.858	-32.9573	0.00203538
149.965	-32.9573	0.00192533
150.071	-32.9573	0.00184811
150.177	-32.9573	0.00187533
150.283	-32.9573	0.00203472
150.389	-32.9573	0.00244538
150.496	-32.9573	0.00308321
150.602	-32.9573	0.00385411
150.708	-32.9573	0.00474928
150.814	-32.9573	0.00626747
150.92	-32.9573	0.00774994
151.027	-32.9573	0.00891507
151.133	-32.9573	0.00971979
151.239	-32.9573	0.0102577
151.345	-32.9573	0.0103862
151.451	-32.9573	0.0103776
151.558	-32.9573	0.0102883
151.664	-32.9573	0.0100157
151.77	-32.9573	0.0095381
151.876	-32.9573	0.00871435
151.982	-32.9573	0.00754988
152.088	-32.9573	0.00617229
152.195	-32.9573	0.0048339
152.301	-32.9573	0.0034135
152.407	-32.9573	0.0021186
152.513	-32.9573	0.00124934
152.619	-32.9573	0.000772601
146.354	-33.0467	0.000135552
146.46	-33.0467	0.000130839
146.566	-33.0467	0.000151498
146.673	-33.0467	0.00022185
146.779	-33.0467	0.000334673
146.885	-33.0467	0.000483312
146.991	-33.0467	0.000626095
147.097	-33.0467	0.000768426
147.204	-33.0467	0.000884457
147.31	-33.0467	0.00100629
147.416	-33.0467	0.00110419
147.522	-33.0467	0.00116555
147.628	-33.0467	0.00127796
147.735	-33.0467	0.00149955
147.841	-33.0467	0.00178659
147.947	-33.0467	0.00202902
148.053	-33.0467	0.00226559
148.159	-33.0467	0.00254976
148.265	-33.0467	0.00285507
148.372	-33.0467	0.00317008
148.478	-33.0467	0.00356219
148.584	-33.0467	0.00392744
148.69	-33.0467	0.00416407
148.796	-33.0467	0.00421973
148.903	-33.0467	0.00411965
149.009	-33.0467	0.00391625
149.115	-33.0467	0.00367524
149.221	-33.0467	0.00347164
149.327	-33.0467	0.00328228
149.434	-33.0467	0.00310016
149.54	-33.0467	0.0029271
149.646	-33.0467	0.00272025
149.752	-33.0467	0.00248024
149.858	-33.0467	0.00240732
149.965	-33.0467	0.00238143
150.071	-33.0467	0.0023477
150.177	-33.0467	0.00239837
150.283	-33.0467	0.00254143
150.389	-33.0467	0.00286575
150.496	-33.0467	0.00354239
150.602	-33.0467	0.00423689
150.708	-33.0467	0.00511051
150.814	-33.0467	0.00648193
150.92	-33.0467	0.00791402
151.027	-33.0467	0.00911102
151.133	-33.0467	0.0100575
151.239	-33.0467	0.0105083
151.345	-33.0467	0.0106018
151.451	-33.0467	0.0105211
151.558	-33.0467	0.0103306
151.664	-33.0467	0.0100487
151.77	-33.0467	0.00956526
151.876	-33.0467	0.00875643
151.982	-33.0467	0.00762993
152.088	-33.0467	0.00620515
152.195	-33.0467	0.00490713
152.301	-33.0467	0.00332363
152.407	-33.0467	0.0018421
152.513	-33.0467	0.000970322
152.619	-33.0467	0.000559846
146.142	-33.1362	0.000155185
146.248	-33.1362	0.000137164
146.354	-33.1362	0.000129193
146.46	-33.1362	0.000132084
146.566	-33.1362	0.000166605
146.673	-33.1362	0.000262252
146.779	-33.1362	0.000411793
146.885	-33.1362	0.000582464
146.991	-33.1362	0.000761122
147.097	-33.1362	0.000913391
147.204	-33.1362	0.00102987
147.31	-33.1362	0.00110984
147.416	-33.1362	0.00115439
147.522	-33.1362	0.00122815
147.628	-33.1362	0.00142943
147.735	-33.1362	0.00173141
147.841	-33.1362	0.00204551
147.947	-33.1362	0.00231877
148.053	-33.1362	0.00255952
148.159	-33.1362	0.00283642
148.265	-33.1362	0.00311553
148.372	-33.1362	0.00340879
148.478	-33.1362	0.00377788
148.584	-33.1362	0.00409781
148.69	-33.1362	0.00429825
148.796	-33.1362	0.00434287
148.903	-33.1362	0.00423892
149.009	-33.1362	0.00399303
149.115	-33.1362	0.00365743
149.221	-33.1362	0.00336198
149.327	-33.1362	0.0031641
149.434	-33.1362	0.00304438
149.54	-33.1362	0.00296205
149.646	-33.1362	0.00286708
149.752	-33.1362	0.00277715
149.858	-33.1362	0.00277992
149.965	-33.1362	0.00280423
150.071	-33.1362	0.00281902
150.177	-33.1362	0.00289294
150.283	-33.1362	0.00301073
150.389	-33.1362	0.00327835
150.496	-33.1362	0.00384122
150.602	-33.1362	0.00456125
150.708	-33.1362	0.00542543
150.814	-33.1362	0.00661949
150.92	-33.1362	0.00796136
151.027	-33.1362	0.00912138
151.133	-33.1362	0.00992951
151.239	-33.1362	0.0104105
151.345	-33.1362	0.0105838
151.451	-33.1362	0.010537
151.558	-33.1362	0.0102919
151.664	-33.1362	0.0098889
151.77	-33.1362	0.00927989
151.876	-33.1362	0.00837773
151.982	-33.1362	0.0072442
152.088	-33.1362	0.00595704
152.195	-33.1362	0.00449853
152.301	-33.1362	0.00290226
152.407	-33.1362	0.00146746
152.513	-33.1362	0.000662929
152.619	-33.1362	0.00034854
146.035	-33.2256	0.000172445
146.142	-33.2256	0.000144542
146.248	-33.2256	0.000131536
146.354	-33.2256	0.000127789
146.46	-33.2256	0.000136434
146.566	-33.2256	0.000184486
146.673	-33.2256	0.000298317
146.779	-33.2256	0.000498371
146.885	-33.2256	0.000712114
146.991	-33.2256	0.000913457
147.097	-33.2256	0.00108682
147.204	-33.2256	0.00118037
147.31	-33.2256	0.00122384
147.416	-33.2256	0.00122694
147.522	-33.2256	0.00133495
147.628	-33.2256	0.00156411
147.735	-33.2256	0.00193567
147.841	-33.2256	0.00227598
147.947	-33.2256	0.00255086
148.053	-33.2256	0.00282719
148.159	-33.2256	0.00310218
148.265	-33.2256	0.00338212
148.372	-33.2256	0.00367654
148.478	-33.2256	0.0039627
148.584	-33.2256	0.00426117
148.69	-33.2256	0.00441453
148.796	-33.2256	0.00443027
148.903	-33.2256	0.00429197
149.009	-33.2256	0.00401568
149.115	-33.2256	0.00362646
149.221	-33.2256	0.00329125
149.327	-33.2256	0.00309801
149.434	-33.2256	0.00304282
149.54	-33.2256	0.00303409
149.646	-33.2256	0.00301353
149.752	-33.2256	0.00301996
149.858	-33.2256	0.0030689
149.965	-33.2256	0.00312516
150.071	-33.2256	0.00323032
150.177	-33.2256	0.00332152
150.283	-33.2256	0.00341933
150.389	-33.2256	0.00362603
150.496	-33.2256	0.0040854
150.602	-33.2256	0.00471033
150.708	-33.2256	0.00548268
150.814	-33.2256	0.00650528
150.92	-33.2256	0.00768537
151.027	-33.2256	0.00871006
151.133	-33.2256	0.00955688
151.239	-33.2256	0.0100509
151.345	-33.2256	0.0103364
151.451	-33.2256	0.0103487
151.558	-33.2256	0.0101367
151.664	-33.2256	0.00961908
151.77	-33.2256	0.00890139
151.876	-33.2256	0.00783707
151.982	-33.2256	0.006671
152.088	-33.2256	0.00535755
152.195	-33.2256	0.00399379
152.301	-33.2256	0.0023201
152.407	-33.2256	0.00112228
152.513	-33.2256	0.000454142
145.929	-33.3151	0.000187124
146.035	-33.3151	0.000158115
146.142	-33.3151	0.000141372
146.248	-33.3151	0.000136341
146.354	-33.3151	0.000140501
146.46	-33.3151	0.000156928
146.566	-33.3151	0.000227827
146.673	-33.3151	0.000371133
146.779	-33.3151	0.000625908
146.885	-33.3151	0.00094056
146.991	-33.3151	0.00121129
147.097	-33.3151	0.00138821
147.204	-33.3151	0.00146352
147.31	-33.3151	0.00145889
147.416	-33.3151	0.00145618
147.522	-33.3151	0.00152094
147.628	-33.3151	0.00175493
147.735	-33.3151	0.00209968
147.841	-33.3151	0.00248556
147.947	-33.3151	0.00279893
148.053	-33.3151	0.00307663
148.159	-33.3151	0.00337223
148.265	-33.3151	0.00365956
148.372	-33.3151	0.00392231
148.478	-33.3151	0.00416824
148.584	-33.3151	0.00437301
148.69	-33.3151	0.00449548
148.796	-33.3151	0.00446483
148.903	-33.3151	0.00429607
149.009	-33.3151	0.00396424
149.115	-33.3151	0.00359004
149.221	-33.3151	0.00320242
149.327	-33.3151	0.00303592
149.434	-33.3151	0.00302278
149.54	-33.3151	0.00307142
149.646	-33.3151	0.00308104
149.752	-33.3151	0.00313373
149.858	-33.3151	0.0032649
149.965	-33.3151	0.00342222
150.071	-33.3151	0.00356567
150.177	-33.3151	0.0037292
150.283	-33.3151	0.00380493
150.389	-33.3151	0.00391086
150.496	-33.3151	0.00428232
150.602	-33.3151	0.00477734
150.708	-33.3151	0.00536977
150.814	-33.3151	0.00615954
150.92	-33.3151	0.00712723
151.027	-33.3151	0.00808993
151.133	-33.3151	0.0089234
151.239	-33.3151	0.00952499
151.345	-33.3151	0.00985232
151.451	-33.3151	0.00992915
151.558	-33.3151	0.00968978
151.664	-33.3151	0.0092356
151.77	-33.3151	0.00838887
151.876	-33.3151	0.00728053
151.982	-33.3151	0.00602639
152.088	-33.3151	0.00476342
152.195	-33.3151	0.00336757
152.301	-33.3151	0.0019556
152.407	-33.3151	0.000889314
152.513	-33.3151	0.000404111
145.717	-33.4046	0.000226122
145.823	-33.4046	0.000192298
145.929	-33.4046	0.000168069
146.035	-33.4046	0.00015178
146.142	-33.4046	0.000150105
146.248	-33.4046	0.000157447
146.354	-33.4046	0.000173423
146.46	-33.4046	0.000224333
146.566	-33.4046	0.000317202
146.673	-33.4046	0.000550995
146.779	-33.4046	0.000935594
146.885	-33.4046	0.00138847
146.991	-33.4046	0.0017992
147.097	-33.4046	0.00201355
147.204	-33.4046	0.00206877
147.31	-33.4046	0.00204492
147.416	-33.4046	0.0019615
147.522	-33.4046	0.00195585
147.628	-33.4046	0.00209711
147.735	-33.4046	0.00238848
147.841	-33.4046	0.00269613
147.947	-33.4046	0.00303877
148.053	-33.4046	0.00332334
148.159	-33.4046	0.00357571
148.265	-33.4046	0.00386738
148.372	-33.4046	0.004168
148.478	-33.4046	0.00438979
148.584	-33.4046	0.00454313
148.69	-33.4046	0.00459011
148.796	-33.4046	0.00451042
148.903	-33.4046	0.00430091
149.009	-33.4046	0.00395289
149.115	-33.4046	0.00351592
149.221	-33.4046	0.00306683
149.327	-33.4046	0.0028988
149.434	-33.4046	0.00293884
149.54	-33.4046	0.00301926
149.646	-33.4046	0.00306268
149.752	-33.4046	0.00315796
149.858	-33.4046	0.00340191
149.965	-33.4046	0.00369797
150.071	-33.4046	0.00394158
150.177	-33.4046	0.00410604
150.283	-33.4046	0.00420195
150.389	-33.4046	0.00426314
150.496	-33.4046	0.00442657
150.602	-33.4046	0.00478702
150.708	-33.4046	0.00519087
150.814	-33.4046	0.00567171
150.92	-33.4046	0.00644511
151.027	-33.4046	0.00729208
151.133	-33.4046	0.00805664
151.239	-33.4046	0.00872589
151.345	-33.4046	0.00912753
151.451	-33.4046	0.00916971
151.558	-33.4046	0.00901817
151.664	-33.4046	0.00856114
151.77	-33.4046	0.0078498
151.876	-33.4046	0.00670983
151.982	-33.4046	0.00534627
152.088	-33.4046	0.00411112
152.195	-33.4046	0.0027248
152.301	-33.4046	0.00153418
152.407	-33.4046	0.000771543
152.513	-33.4046	0.00043774
145.611	-33.494	0.000225352
145.717	-33.494	0.000194364
145.823	-33.494	0.000168284
145.929	-33.494	0.000154495
146.035	-33.494	0.000155751
146.142	-33.494	0.000170743
146.248	-33.494	0.000193754
146.354	-33.494	0.000242076
146.46	-33.494	0.00034822
146.566	-33.494	0.000555431
146.673	-33.494	0.000981387
146.779	-33.494	0.0015444
146.885	-33.494	0.00217258
146.991	-33.494	0.00263157
147.097	-33.494	0.00299904
147.204	-33.494	0.00313918
147.31	-33.494	0.0030026
147.416	-33.494	0.00288238
147.522	-33.494	0.00269909
147.628	-33.494	0.00269434
147.735	-33.494	0.00284121
147.841	-33.494	0.00301266
147.947	-33.494	0.00326034
148.053	-33.494	0.0035217
148.159	-33.494	0.00376594
148.265	-33.494	0.00407769
148.372	-33.494	0.00439146
148.478	-33.494	0.00467973
148.584	-33.494	0.00478973
148.69	-33.494	0.00477417
148.796	-33.494	0.00463984
148.903	-33.494	0.00436869
149.009	-33.494	0.00395494
149.115	-33.494	0.00343346
149.221	-33.494	0.00293822
149.327	-33.494	0.00273621
149.434	-33.494	0.00277286
149.54	-33.494	0.00287246
149.646	-33.494	0.00295314
149.752	-33.494	0.0031784
149.858	-33.494	0.00355877
149.965	-33.494	0.00400263
150.071	-33.494	0.00437716
150.177	-33.494	0.00461649
150.283	-33.494	0.00474372
150.389	-33.494	0.00477654
150.496	-33.494	0.00480849
150.602	-33.494	0.00486794
150.708	-33.494	0.00499824
150.814	-33.494	0.00508592
150.92	-33.494	0.00548343
151.027	-33.494	0.00613775
151.133	-33.494	0.00702217
151.239	-33.494	0.00768677
151.345	-33.494	0.00811191
151.451	-33.494	0.00814842
151.558	-33.494	0.0080649
151.664	-33.494	0.00756951
151.77	-33.494	0.00688721
151.876	-33.494	0.00581428
151.982	-33.494	0.0046524
152.088	-33.494	0.00353753
152.195	-33.494	0.00231094
152.301	-33.494	0.00127781
152.407	-33.494	0.00075364
145.398	-33.5835	0.00026096
145.504	-33.5835	0.000243028
145.611	-33.5835	0.000215983
145.717	-33.5835	0.000189078
145.823	-33.5835	0.000167516
145.929	-33.5835	0.000157845
146.035	-33.5835	0.00016895
146.142	-33.5835	0.000200553
146.248	-33.5835	0.000253347
146.354	-33.5835	0.000355311
146.46	-33.5835	0.000631876
146.566	-33.5835	0.00104638
146.673	-33.5835	0.00165683
146.779	-33.5835	0.00240833
146.885	-33.5835	0.00309726
146.991	-33.5835	0.00365308
147.097	-33.5835	0.00403784
147.204	-33.5835	0.00436111
147.31	-33.5835	0.00426741
147.416	-33.5835	0.00418477
147.522	-33.5835	0.00390137
147.628	-33.5835	0.00377073
147.735	-33.5835	0.00357372
147.841	-33.5835	0.00347093
147.947	-33.5835	0.00354331
148.053	-33.5835	0.00372576
148.159	-33.5835	0.00397574
148.265	-33.5835	0.00436154
148.372	-33.5835	0.00471151
148.478	-33.5835	0.00501836
148.584	-33.5835	0.00511543
148.69	-33.5835	0.00506707
148.796	-33.5835	0.00489057
148.903	-33.5835	0.00457341
149.009	-33.5835	0.00410391
149.115	-33.5835	0.00349895
149.221	-33.5835	0.0029597
149.327	-33.5835	0.00271261
149.434	-33.5835	0.00267298
149.54	-33.5835	0.00272114
149.646	-33.5835	0.00287615
149.752	-33.5835	0.00321446
149.858	-33.5835	0.00376716
149.965	-33.5835	0.00437537
150.071	-33.5835	0.00490708
150.177	-33.5835	0.00524627
150.283	-33.5835	0.00549214
150.389	-33.5835	0.00558008
150.496	-33.5835	0.00555135
150.602	-33.5835	0.00527934
150.708	-33.5835	0.00510462
150.814	-33.5835	0.004815
150.92	-33.5835	0.00469711
151.027	-33.5835	0.00496216
151.133	-33.5835	0.00564312
151.239	-33.5835	0.00624665
151.345	-33.5835	0.00663286
151.451	-33.5835	0.00673435
151.558	-33.5835	0.00673606
151.664	-33.5835	0.00638356
151.77	-33.5835	0.00577215
151.876	-33.5835	0.00486546
151.982	-33.5835	0.00397728
152.088	-33.5835	0.00295498
152.195	-33.5835	0.00196633
152.301	-33.5835	0.00123419
152.407	-33.5835	0.000766845
145.292	-33.673	0.000286916
145.398	-33.673	0.000290149
145.504	-33.673	0.00029033
145.611	-33.673	0.00026915
145.717	-33.673	0.000244845
145.823	-33.673	0.000220434
145.929	-33.673	0.000198116
146.035	-33.673	0.000202644
146.142	-33.673	0.00023685
146.248	-33.673	0.000320697
146.354	-33.673	0.000536018
146.46	-33.673	0.000996035
146.566	-33.673	0.00168638
146.673	-33.673	0.00246351
146.779	-33.673	0.00328948
146.885	-33.673	0.00401384
146.991	-33.673	0.0046783
147.097	-33.673	0.00530777
147.204	-33.673	0.00566271
147.31	-33.673	0.00564514
147.416	-33.673	0.00559733
147.522	-33.673	0.00531432
147.628	-33.673	0.00511212
147.735	-33.673	0.00474465
147.841	-33.673	0.0043208
147.947	-33.673	0.00407184
148.053	-33.673	0.00409012
148.159	-33.673	0.0044148
148.265	-33.673	0.00486997
148.372	-33.673	0.00522794
148.478	-33.673	0.00545923
148.584	-33.673	0.005579
148.69	-33.673	0.00549742
148.796	-33.673	0.00527192
148.903	-33.673	0.00485503
149.009	-33.673	0.0042693
149.115	-33.673	0.00363189
149.221	-33.673	0.00308562
149.327	-33.673	0.00281801
149.434	-33.673	0.00274932
149.54	-33.673	0.00279963
149.646	-33.673	0.00299849
149.752	-33.673	0.0035109
149.858	-33.673	0.00422883
149.965	-33.673	0.00496405
150.071	-33.673	0.00555369
150.177	-33.673	0.00601583
150.283	-33.673	0.0062548
150.389	-33.673	0.00642755
150.496	-33.673	0.00645549
150.602	-33.673	0.00621202
150.708	-33.673	0.00565362
150.814	-33.673	0.00497796
150.92	-33.673	0.00435867
151.027	-33.673	0.00414122
151.133	-33.673	0.00438046
151.239	-33.673	0.00468601
151.345	-33.673	0.00495925
151.451	-33.673	0.00518107
151.558	-33.673	0.00512044
151.664	-33.673	0.00496622
151.77	-33.673	0.00454422
151.876	-33.673	0.00381119
151.982	-33.673	0.00310663
152.088	-33.673	0.00236142
152.195	-33.673	0.00165368
152.301	-33.673	0.00113149
152.407	-33.673	0.000724097
145.08	-33.7624	0.000284617
145.186	-33.7624	0.000325491
145.292	-33.7624	0.000369929
145.398	-33.7624	0.000412411
145.504	-33.7624	0.000452158
145.611	-33.7624	0.000454329
145.717	-33.7624	0.000431961
145.823	-33.7624	0.000402244
145.929	-33.7624	0.000341975
146.035	-33.7624	0.000302298
146.142	-33.7624	0.000314276
146.248	-33.7624	0.000448529
146.354	-33.7624	0.000808085
146.46	-33.7624	0.00154913
146.566	-33.7624	0.00241149
146.673	-33.7624	0.00326919
146.779	-33.7624	0.00411573
146.885	-33.7624	0.0050398
146.991	-33.7624	0.00585172
147.097	-33.7624	0.0064234
147.204	-33.7624	0.00673404
147.31	-33.7624	0.00685513
147.416	-33.7624	0.00690427
147.522	-33.7624	0.00670194
147.628	-33.7624	0.00640532
147.735	-33.7624	0.0059568
147.841	-33.7624	0.00545014
147.947	-33.7624	0.00490913
148.053	-33.7624	0.00473824
148.159	-33.7624	0.00498681
148.265	-33.7624	0.00546248
148.372	-33.7624	0.00589609
148.478	-33.7624	0.006147
148.584	-33.7624	0.00627393
148.69	-33.7624	0.00625509
148.796	-33.7624	0.00589119
148.903	-33.7624	0.00531341
149.009	-33.7624	0.00467665
149.115	-33.7624	0.00396989
149.221	-33.7624	0.00334485
149.327	-33.7624	0.00304653
149.434	-33.7624	0.00297902
149.54	-33.7624	0.00307303
149.646	-33.7624	0.0033814
149.752	-33.7624	0.00398463
149.858	-33.7624	0.00477567
149.965	-33.7624	0.0055924
150.071	-33.7624	0.00621942
150.177	-33.7624	0.00665699
150.283	-33.7624	0.0070062
150.389	-33.7624	0.00722803
150.496	-33.7624	0.00733062
150.602	-33.7624	0.00708976
150.708	-33.7624	0.00644267
150.814	-33.7624	0.0055919
150.92	-33.7624	0.00459334
151.027	-33.7624	0.00396747
151.133	-33.7624	0.00361362
151.239	-33.7624	0.00359496
151.345	-33.7624	0.00366848
151.451	-33.7624	0.00369794
151.558	-33.7624	0.00378484
151.664	-33.7624	0.0036887
151.77	-33.7624	0.00343536
151.876	-33.7624	0.00298992
151.982	-33.7624	0.00247139
152.088	-33.7624	0.00198152
152.195	-33.7624	0.00150961
152.301	-33.7624	0.00105859
152.407	-33.7624	0.000675522
144.973	-33.8519	0.000273588
145.08	-33.8519	0.000345466
145.186	-33.8519	0.000443158
145.292	-33.8519	0.000539702
145.398	-33.8519	0.0006239
145.504	-33.8519	0.000710708
145.611	-33.8519	0.000752319
145.717	-33.8519	0.000757478
145.823	-33.8519	0.000716009
145.929	-33.8519	0.000626846
146.035	-33.8519	0.000522466
146.142	-33.8519	0.000475127
146.248	-33.8519	0.000623346
146.354	-33.8519	0.00110851
146.46	-33.8519	0.0020011
146.566	-33.8519	0.00302174
146.673	-33.8519	0.00400748
146.779	-33.8519	0.00503355
146.885	-33.8519	0.00602002
146.991	-33.8519	0.00691753
147.097	-33.8519	0.00747104
147.204	-33.8519	0.00775524
147.31	-33.8519	0.00790911
147.416	-33.8519	0.00790755
147.522	-33.8519	0.00775931
147.628	-33.8519	0.0074833
147.735	-33.8519	0.00715733
147.841	-33.8519	0.00655157
147.947	-33.8519	0.00595407
148.053	-33.8519	0.00569401
148.159	-33.8519	0.0058236
148.265	-33.8519	0.00624004
148.372	-33.8519	0.0067213
148.478	-33.8519	0.00716141
148.584	-33.8519	0.0074099
148.69	-33.8519	0.00731752
148.796	-33.8519	0.00696858
148.903	-33.8519	0.00625354
149.009	-33.8519	0.00541409
149.115	-33.8519	0.00457061
149.221	-33.8519	0.00384791
149.327	-33.8519	0.00344418
149.434	-33.8519	0.00329708
149.54	-33.8519	0.00345481
149.646	-33.8519	0.00391847
149.752	-33.8519	0.00463041
149.858	-33.8519	0.00539376
149.965	-33.8519	0.00608774
150.071	-33.8519	0.00681461
150.177	-33.8519	0.00734606
150.283	-33.8519	0.00774926
150.389	-33.8519	0.00800746
150.496	-33.8519	0.00808419
150.602	-33.8519	0.00782544
150.708	-33.8519	0.00721403
150.814	-33.8519	0.00622623
150.92	-33.8519	0.00518175
151.027	-33.8519	0.00422345
151.133	-33.8519	0.00358087
151.239	-33.8519	0.00326936
151.345	-33.8519	0.00307405
151.451	-33.8519	0.00301026
151.558	-33.8519	0.00301802
151.664	-33.8519	0.00298101
151.77	-33.8519	0.00281243
151.876	-33.8519	0.00253025
151.982	-33.8519	0.00222098
152.088	-33.8519	0.00181994
152.195	-33.8519	0.00138971
152.301	-33.8519	0.000990415
144.761	-33.9414	0.000208258
144.867	-33.9414	0.000257805
144.973	-33.9414	0.000349788
145.08	-33.9414	0.000474535
145.186	-33.9414	0.000617171
145.292	-33.9414	0.000763573
145.398	-33.9414	0.000888356
145.504	-33.9414	0.00103706
145.611	-33.9414	0.00112268
145.717	-33.9414	0.00113873
145.823	-33.9414	0.00110406
145.929	-33.9414	0.000985522
146.035	-33.9414	0.000848454
146.142	-33.9414	0.000746603
146.248	-33.9414	0.000893315
146.354	-33.9414	0.00144678
146.46	-33.9414	0.00235252
146.566	-33.9414	0.0034554
146.673	-33.9414	0.00469302
146.779	-33.9414	0.00586865
146.885	-33.9414	0.00693352
146.991	-33.9414	0.00774367
147.097	-33.9414	0.0083205
147.204	-33.9414	0.00861528
147.31	-33.9414	0.00880909
147.416	-33.9414	0.00874195
147.522	-33.9414	0.00863828
147.628	-33.9414	0.00842349
147.735	-33.9414	0.00805445
147.841	-33.9414	0.00751215
147.947	-33.9414	0.00699531
148.053	-33.9414	0.00667764
148.159	-33.9414	0.00673807
148.265	-33.9414	0.00717262
148.372	-33.9414	0.00779023
148.478	-33.9414	0.00835327
148.584	-33.9414	0.0087203
148.69	-33.9414	0.00869884
148.796	-33.9414	0.00823258
148.903	-33.9414	0.00740898
149.009	-33.9414	0.00651789
149.115	-33.9414	0.00568464
149.221	-33.9414	0.00474584
149.327	-33.9414	0.00405333
149.434	-33.9414	0.00382623
149.54	-33.9414	0.00396304
149.646	-33.9414	0.00447949
149.752	-33.9414	0.00526769
149.858	-33.9414	0.00596479
149.965	-33.9414	0.00663596
150.071	-33.9414	0.00734803
150.177	-33.9414	0.00809768
150.283	-33.9414	0.00859918
150.389	-33.9414	0.0088813
150.496	-33.9414	0.00894755
150.602	-33.9414	0.00853464
150.708	-33.9414	0.00777921
150.814	-33.9414	0.00683961
150.92	-33.9414	0.00566306
151.027	-33.9414	0.00459555
151.133	-33.9414	0.00385363
151.239	-33.9414	0.00338896
151.345	-33.9414	0.00312266
151.451	-33.9414	0.00294077
151.558	-33.9414	0.00279864
151.664	-33.9414	0.00269018
151.77	-33.9414	0.00257661
151.876	-33.9414	0.00237029
151.982	-33.9414	0.00203239
152.088	-33.9414	0.00165746
152.195	-33.9414	0.00125059
152.301	-33.9414	0.000880872
144.655	-34.0308	0.000212623
144.761	-34.0308	0.00024681
144.867	-34.0308	0.000333733
144.973	-34.0308	0.000495393
145.08	-34.0308	0.00067064
145.186	-34.0308	0.000860047
145.292	-34.0308	0.00103265
145.398	-34.0308	0.00122239
145.504	-34.0308	0.00138225
145.611	-34.0308	0.00148545
145.717	-34.0308	0.00152402
145.823	-34.0308	0.00146747
145.929	-34.0308	0.00137071
146.035	-34.0308	0.00119442
146.142	-34.0308	0.00109387
146.248	-34.0308	0.00124073
146.354	-34.0308	0.00175181
146.46	-34.0308	0.00270733
146.566	-34.0308	0.00388832
146.673	-34.0308	0.00515862
146.779	-34.0308	0.00639824
146.885	-34.0308	0.00757572
146.991	-34.0308	0.00837788
147.097	-34.0308	0.00890586
147.204	-34.0308	0.00922848
147.31	-34.0308	0.00939246
147.416	-34.0308	0.00945389
147.522	-34.0308	0.00939808
147.628	-34.0308	0.00914745
147.735	-34.0308	0.00874893
147.841	-34.0308	0.00828163
147.947	-34.0308	0.00778872
148.053	-34.0308	0.00751787
148.159	-34.0308	0.0076268
148.265	-34.0308	0.00814373
148.372	-34.0308	0.00884552
148.478	-34.0308	0.00952466
148.584	-34.0308	0.00993165
148.69	-34.0308	0.00995813
148.796	-34.0308	0.00947161
148.903	-34.0308	0.00871761
149.009	-34.0308	0.00784067
149.115	-34.0308	0.00684244
149.221	-34.0308	0.00583134
149.327	-34.0308	0.00503062
149.434	-34.0308	0.00451577
149.54	-34.0308	0.00460381
149.646	-34.0308	0.00503122
149.752	-34.0308	0.00567886
149.858	-34.0308	0.00634642
149.965	-34.0308	0.00717579
150.071	-34.0308	0.00801938
150.177	-34.0308	0.00885626
150.283	-34.0308	0.0095032
150.389	-34.0308	0.00978206
150.496	-34.0308	0.00976169
150.602	-34.0308	0.00927389
150.708	-34.0308	0.00848596
150.814	-34.0308	0.00735579
150.92	-34.0308	0.00625524
151.027	-34.0308	0.00508289
151.133	-34.0308	0.00411888
151.239	-34.0308	0.00356881
151.345	-34.0308	0.00326206
151.451	-34.0308	0.00302301
151.558	-34.0308	0.00274878
151.664	-34.0308	0.0025439
151.77	-34.0308	0.00239802
151.876	-34.0308	0.00218715
151.982	-34.0308	0.00186689
152.088	-34.0308	0.00151785
152.195	-34.0308	0.00113973
152.301	-34.0308	0.000738237
144.442	-34.1203	0.000236427
144.549	-34.1203	0.000207675
144.655	-34.1203	0.00022892
144.761	-34.1203	0.00031657
144.867	-34.1203	0.000467605
144.973	-34.1203	0.000671456
145.08	-34.1203	0.000916248
145.186	-34.1203	0.00115221
145.292	-34.1203	0.00136602
145.398	-34.1203	0.00160447
145.504	-34.1203	0.00174081
145.611	-34.1203	0.00184004
145.717	-34.1203	0.00184118
145.823	-34.1203	0.00181241
145.929	-34.1203	0.00168691
146.035	-34.1203	0.00152315
146.142	-34.1203	0.00143335
146.248	-34.1203	0.0015387
146.354	-34.1203	0.00204483
146.46	-34.1203	0.00295839
146.566	-34.1203	0.00416017
146.673	-34.1203	0.00549481
146.779	-34.1203	0.0068081
146.885	-34.1203	0.00789012
146.991	-34.1203	0.0087293
147.097	-34.1203	0.00926255
147.204	-34.1203	0.00957382
147.31	-34.1203	0.00975946
147.416	-34.1203	0.00988817
147.522	-34.1203	0.00985632
147.628	-34.1203	0.00965767
147.735	-34.1203	0.00928275
147.841	-34.1203	0.00876332
147.947	-34.1203	0.00832071
148.053	-34.1203	0.00816728
148.159	-34.1203	0.00833613
148.265	-34.1203	0.00883298
148.372	-34.1203	0.00966459
148.478	-34.1203	0.0104996
148.584	-34.1203	0.0109927
148.69	-34.1203	0.0110445
148.796	-34.1203	0.0107894
148.903	-34.1203	0.01013
149.009	-34.1203	0.00927617
149.115	-34.1203	0.00815705
149.221	-34.1203	0.00707972
149.327	-34.1203	0.00616277
149.434	-34.1203	0.00545486
149.54	-34.1203	0.005261
149.646	-34.1203	0.00546197
149.752	-34.1203	0.00596056
149.858	-34.1203	0.0066394
149.965	-34.1203	0.00761487
150.071	-34.1203	0.00864114
150.177	-34.1203	0.00955728
150.283	-34.1203	0.0101598
150.389	-34.1203	0.0104375
150.496	-34.1203	0.0103732
150.602	-34.1203	0.00989582
150.708	-34.1203	0.00912261
150.814	-34.1203	0.00816187
150.92	-34.1203	0.00695922
151.027	-34.1203	0.00572664
151.133	-34.1203	0.00449224
151.239	-34.1203	0.00372447
151.345	-34.1203	0.00331873
151.451	-34.1203	0.00299924
151.558	-34.1203	0.00269341
151.664	-34.1203	0.0023951
151.77	-34.1203	0.00220449
151.876	-34.1203	0.00197838
151.982	-34.1203	0.00169224
152.088	-34.1203	0.00132703
152.195	-34.1203	0.000981155
144.336	-34.2097	0.000263088
144.442	-34.2097	0.00021535
144.549	-34.2097	0.000204994
144.655	-34.2097	0.000265006
144.761	-34.2097	0.000417614
144.867	-34.2097	0.000644709
144.973	-34.2097	0.00090434
145.08	-34.2097	0.001179
145.186	-34.2097	0.00146777
145.292	-34.2097	0.00170568
145.398	-34.2097	0.00190092
145.504	-34.2097	0.00205973
145.611	-34.2097	0.00213504
145.717	-34.2097	0.0021455
145.823	-34.2097	0.00208411
145.929	-34.2097	0.00196265
146.035	-34.2097	0.00182141
146.142	-34.2097	0.00170286
146.248	-34.2097	0.00176385
146.354	-34.2097	0.00215188
146.46	-34.2097	0.00299355
146.566	-34.2097	0.00417462
146.673	-34.2097	0.00563625
146.779	-34.2097	0.00696631
146.885	-34.2097	0.00799063
146.991	-34.2097	0.00879371
147.097	-34.2097	0.00935574
147.204	-34.2097	0.00966306
147.31	-34.2097	0.00985898
147.416	-34.2097	0.00998165
147.522	-34.2097	0.0100236
147.628	-34.2097	0.00989888
147.735	-34.2097	0.00950177
147.841	-34.2097	0.0090212
147.947	-34.2097	0.00863828
148.053	-34.2097	0.00859925
148.159	-34.2097	0.00879783
148.265	-34.2097	0.00945264
148.372	-34.2097	0.0103235
148.478	-34.2097	0.0113354
148.584	-34.2097	0.0120538
148.69	-34.2097	0.0124135
148.796	-34.2097	0.0125297
148.903	-34.2097	0.0121461
149.009	-34.2097	0.011454
149.115	-34.2097	0.010212
149.221	-34.2097	0.00899385
149.327	-34.2097	0.00789121
149.434	-34.2097	0.00682771
149.54	-34.2097	0.00609027
149.646	-34.2097	0.00584246
149.752	-34.2097	0.00609299
149.858	-34.2097	0.00690059
149.965	-34.2097	0.00785769
150.071	-34.2097	0.0089832
150.177	-34.2097	0.00992031
150.283	-34.2097	0.0105538
150.389	-34.2097	0.0108409
150.496	-34.2097	0.0107004
150.602	-34.2097	0.0102833
150.708	-34.2097	0.00956835
150.814	-34.2097	0.00860116
150.92	-34.2097	0.00758022
151.027	-34.2097	0.00625684
151.133	-34.2097	0.00481906
151.239	-34.2097	0.00383486
151.345	-34.2097	0.00323398
151.451	-34.2097	0.00279514
151.558	-34.2097	0.00245424
151.664	-34.2097	0.00216353
151.77	-34.2097	0.00192777
151.876	-34.2097	0.00169941
151.982	-34.2097	0.00143596
152.088	-34.2097	0.0011141
152.195	-34.2097	0.000762016
144.124	-34.2992	0.000345454
144.23	-34.2992	0.000300416
144.336	-34.2992	0.000251544
144.442	-34.2992	0.000227718
144.549	-34.2992	0.000242465
144.655	-34.2992	0.000347741
144.761	-34.2992	0.000587199
144.867	-34.2992	0.000933134
144.973	-34.2992	0.00124335
145.08	-34.2992	0.00155532
145.186	-34.2992	0.001793
145.292	-34.2992	0.00198708
145.398	-34.2992	0.00216175
145.504	-34.2992	0.00230658
145.611	-34.2992	0.0023924
145.717	-34.2992	0.00238745
145.823	-34.2992	0.00231742
145.929	-34.2992	0.00220443
146.035	-34.2992	0.002033
146.142	-34.2992	0.0018804
146.248	-34.2992	0.0018594
146.354	-34.2992	0.0020912
146.46	-34.2992	0.00277609
146.566	-34.2992	0.00397488
146.673	-34.2992	0.00546417
146.779	-34.2992	0.0067368
146.885	-34.2992	0.00784708
146.991	-34.2992	0.00859755
147.097	-34.2992	0.00914362
147.204	-34.2992	0.00944116
147.31	-34.2992	0.00963864
147.416	-34.2992	0.00975796
147.522	-34.2992	0.00986066
147.628	-34.2992	0.00973625
147.735	-34.2992	0.00940157
147.841	-34.2992	0.00892449
147.947	-34.2992	0.00868464
148.053	-34.2992	0.00873064
148.159	-34.2992	0.0091362
148.265	-34.2992	0.00993736
148.372	-34.2992	0.0109528
148.478	-34.2992	0.0120377
148.584	-34.2992	0.0132216
148.69	-34.2992	0.0140312
148.796	-34.2992	0.0145495
148.903	-34.2992	0.0145188
149.009	-34.2992	0.0138608
149.115	-34.2992	0.0128409
149.221	-34.2992	0.0115235
149.327	-34.2992	0.00998278
149.434	-34.2992	0.00865499
149.54	-34.2992	0.00733199
149.646	-34.2992	0.00651506
149.752	-34.2992	0.00653886
149.858	-34.2992	0.00714902
149.965	-34.2992	0.00806692
150.071	-34.2992	0.00911329
150.177	-34.2992	0.0100676
150.283	-34.2992	0.0107192
150.389	-34.2992	0.0109892
150.496	-34.2992	0.0109083
150.602	-34.2992	0.0104859
150.708	-34.2992	0.00981681
150.814	-34.2992	0.00897938
150.92	-34.2992	0.00781705
151.027	-34.2992	0.0065555
151.133	-34.2992	0.00512882
151.239	-34.2992	0.00390192
151.345	-34.2992	0.0030604
151.451	-34.2992	0.00255429
151.558	-34.2992	0.00212507
151.664	-34.2992	0.00183979
151.77	-34.2992	0.00162092
151.876	-34.2992	0.00141662
151.982	-34.2992	0.00115899
152.088	-34.2992	0.000873882
152.195	-34.2992	0.000602424
144.018	-34.3887	0.000363286
144.124	-34.3887	0.000330749
144.23	-34.3887	0.000301438
144.336	-34.3887	0.000277772
144.442	-34.3887	0.000288007
144.549	-34.3887	0.00037209
144.655	-34.3887	0.000587023
144.761	-34.3887	0.000963021
144.867	-34.3887	0.00138174
144.973	-34.3887	0.00179785
145.08	-34.3887	0.0020599
145.186	-34.3887	0.00223025
145.292	-34.3887	0.00233795
145.398	-34.3887	0.0024154
145.504	-34.3887	0.0025388
145.611	-34.3887	0.00258748
145.717	-34.3887	0.0025826
145.823	-34.3887	0.00249823
145.929	-34.3887	0.00236337
146.035	-34.3887	0.0021695
146.142	-34.3887	0.00196728
146.248	-34.3887	0.00181977
146.354	-34.3887	0.00192378
146.46	-34.3887	0.00245817
146.566	-34.3887	0.00359115
146.673	-34.3887	0.0049916
146.779	-34.3887	0.00626061
146.885	-34.3887	0.00732648
146.991	-34.3887	0.00810922
147.097	-34.3887	0.00855637
147.204	-34.3887	0.00886903
147.31	-34.3887	0.00907429
147.416	-34.3887	0.00917831
147.522	-34.3887	0.00931068
147.628	-34.3887	0.00919102
147.735	-34.3887	0.00885679
147.841	-34.3887	0.00851171
147.947	-34.3887	0.00839482
148.053	-34.3887	0.00862939
148.159	-34.3887	0.00934721
148.265	-34.3887	0.0102899
148.372	-34.3887	0.0115285
148.478	-34.3887	0.0130553
148.584	-34.3887	0.0147204
148.69	-34.3887	0.0159978
148.796	-34.3887	0.0166189
148.903	-34.3887	0.0165611
149.009	-34.3887	0.0162322
149.115	-34.3887	0.0152872
149.221	-34.3887	0.0138574
149.327	-34.3887	0.0121828
149.434	-34.3887	0.0105202
149.54	-34.3887	0.00879515
149.646	-34.3887	0.00766443
149.752	-34.3887	0.007226
149.858	-34.3887	0.00739668
149.965	-34.3887	0.00811752
