0
135.841	-27.6789	0.000844387
135.947	-27.6789	0.00083686
136.053	-27.6789	0.000804562
136.159	-27.6789	0.000754747
136.265	-27.6789	0.000679461
136.372	-27.6789	0.000562703
136.478	-27.6789	0.000449703
136.584	-27.6789	0.000361057
136.69	-27.6789	0.000326355
136.796	-27.6789	0.000398116
136.903	-27.6789	0.00051998
137.009	-27.6789	0.000639918
137.115	-27.6789	0.000735813
137.221	-27.6789	0.000799703
137.327	-27.6789	0.000829463
137.434	-27.6789	0.00082681
137.54	-27.6789	0.000799872
137.646	-27.6789	0.00075445
137.752	-27.6789	0.00068992
134.779	-27.7684	0.000278606
134.885	-27.7684	0.000336147
134.991	-27.7684	0.000402185
135.097	-27.7684	0.000474033
135.204	-27.7684	0.000559703
135.31	-27.7684	0.000649398
135.416	-27.7684	0.000722594
135.522	-27.7684	0.000798581
135.628	-27.7684	0.000871535
135.735	-27.7684	0.000913476
135.841	-27.7684	0.000925503
135.947	-27.7684	0.000923621
136.053	-27.7684	0.000905667
136.159	-27.7684	0.000863381
136.265	-27.7684	0.000796855
136.372	-27.7684	0.000685191
136.478	-27.7684	0.000540292
136.584	-27.7684	0.000421148
136.69	-27.7684	0.000377526
136.796	-27.7684	0.000467466
136.903	-27.7684	0.000608787
137.009	-27.7684	0.000715553
137.115	-27.7684	0.000794478
137.221	-27.7684	0.000856629
137.327	-27.7684	0.000885373
137.434	-27.7684	0.000882511
137.54	-27.7684	0.00085296
137.646	-27.7684	0.00079896
137.752	-27.7684	0.000719694
137.858	-27.7684	0.000631801
134.779	-27.8579	0.000250596
134.885	-27.8579	0.000300167
134.991	-27.8579	0.000360394
135.097	-27.8579	0.000434204
135.204	-27.8579	0.000532542
135.31	-27.8579	0.000641692
135.416	-27.8579	0.000741321
135.522	-27.8579	0.000843153
135.628	-27.8579	0.000934029
135.735	-27.8579	0.000985069
135.841	-27.8579	0.000997751
135.947	-27.8579	0.000999458
136.053	-27.8579	0.000991729
136.159	-27.8579	0.000956013
136.265	-27.8579	0.0008912
136.372	-27.8579	0.00078415
136.478	-27.8579	0.000640529
136.584	-27.8579	0.000509378
136.69	-27.8579	0.000462977
136.796	-27.8579	0.000565041
136.903	-27.8579	0.000711966
137.009	-27.8579	0.000814728
137.115	-27.8579	0.000884047
137.221	-27.8579	0.000939128
137.327	-27.8579	0.000969423
137.434	-27.8579	0.000964446
137.54	-27.8579	0.000940717
137.646	-27.8579	0.000880381
137.752	-27.8579	0.000790978
137.858	-27.8579	0.000687092
137.965	-27.8579	0.000571767
138.071	-27.8579	0.000460357
134.885	-27.9473	0.00027734
134.991	-27.9473	0.000340389
135.097	-27.9473	0.000418462
135.204	-27.9473	0.000521516
135.31	-27.9473	0.000642102
135.416	-27.9473	0.000758622
135.522	-27.9473	0.000877438
135.628	-27.9473	0.000983433
135.735	-27.9473	0.00105035
135.841	-27.9473	0.00107562
135.947	-27.9473	0.00108108
136.053	-27.9473	0.00107142
136.159	-27.9473	0.00104002
136.265	-27.9473	0.000977565
136.372	-27.9473	0.000882543
136.478	-27.9473	0.000730086
136.584	-27.9473	0.00059237
136.69	-27.9473	0.000541054
136.796	-27.9473	0.000638971
136.903	-27.9473	0.000787474
137.009	-27.9473	0.000890793
137.115	-27.9473	0.00096214
137.221	-27.9473	0.00102143
137.327	-27.9473	0.0010641
137.434	-27.9473	0.0010658
137.54	-27.9473	0.00104801
137.646	-27.9473	0.000983091
137.752	-27.9473	0.000886997
137.858	-27.9473	0.00077253
137.965	-27.9473	0.000641579
138.071	-27.9473	0.000506318
138.177	-27.9473	0.000368783
134.991	-28.0368	0.00032256
135.097	-28.0368	0.000410043
135.204	-28.0368	0.000523265
135.31	-28.0368	0.000652053
135.416	-28.0368	0.00077582
135.522	-28.0368	0.000904952
135.628	-28.0368	0.0010262
135.735	-28.0368	0.00110866
135.841	-28.0368	0.00114644
135.947	-28.0368	0.00115658
136.053	-28.0368	0.00114574
136.159	-28.0368	0.00111691
136.265	-28.0368	0.00105986
136.372	-28.0368	0.000964434
136.478	-28.0368	0.00081376
136.584	-28.0368	0.00064798
136.69	-28.0368	0.000578282
136.796	-28.0368	0.000665552
136.903	-28.0368	0.000812282
137.009	-28.0368	0.000917597
137.115	-28.0368	0.000991984
137.221	-28.0368	0.00106085
137.327	-28.0368	0.00112068
137.434	-28.0368	0.00114664
137.54	-28.0368	0.00113524
137.646	-28.0368	0.00108001
137.752	-28.0368	0.000982844
137.858	-28.0368	0.000856689
137.965	-28.0368	0.000707187
138.071	-28.0368	0.000550685
138.177	-28.0368	0.000376075
138.283	-28.0368	0.000248472
138.389	-28.0368	0.000195964
134.991	-28.1262	0.000298789
135.097	-28.1262	0.000398015
135.204	-28.1262	0.000525477
135.31	-28.1262	0.000654883
135.416	-28.1262	0.000780525
135.522	-28.1262	0.000917532
135.628	-28.1262	0.00104957
135.735	-28.1262	0.00114568
135.841	-28.1262	0.00119922
135.947	-28.1262	0.00122266
136.053	-28.1262	0.0012178
136.159	-28.1262	0.00119193
136.265	-28.1262	0.00113598
136.372	-28.1262	0.00103675
136.478	-28.1262	0.000874745
136.584	-28.1262	0.000685821
136.69	-28.1262	0.000587642
136.796	-28.1262	0.000657067
136.903	-28.1262	0.0007902
137.009	-28.1262	0.000899909
137.115	-28.1262	0.000974673
137.221	-28.1262	0.0010511
137.327	-28.1262	0.0011167
137.434	-28.1262	0.00115349
137.54	-28.1262	0.0011607
137.646	-28.1262	0.00112729
137.752	-28.1262	0.00104099
137.858	-28.1262	0.000912653
137.965	-28.1262	0.000750467
138.071	-28.1262	0.000566853
138.177	-28.1262	0.000366986
138.283	-28.1262	0.000234991
138.389	-28.1262	0.000189903
138.496	-28.1262	0.00018131
135.097	-28.2157	0.000374865
135.204	-28.2157	0.000508324
135.31	-28.2157	0.00063842
135.416	-28.2157	0.0007622
135.522	-28.2157	0.000901833
135.628	-28.2157	0.00104491
135.735	-28.2157	0.00116063
135.841	-28.2157	0.00123556
135.947	-28.2157	0.00127846
136.053	-28.2157	0.00128966
136.159	-28.2157	0.00127122
136.265	-28.2157	0.00121923
136.372	-28.2157	0.00111656
136.478	-28.2157	0.000947649
136.584	-28.2157	0.000745979
136.69	-28.2157	0.000620903
136.796	-28.2157	0.000639312
136.903	-28.2157	0.000744403
137.009	-28.2157	0.000852421
137.115	-28.2157	0.000932414
137.221	-28.2157	0.00100798
137.327	-28.2157	0.00106625
137.434	-28.2157	0.00110048
137.54	-28.2157	0.00110743
137.646	-28.2157	0.00107787
137.752	-28.2157	0.0010162
137.858	-28.2157	0.000906575
137.965	-28.2157	0.000744525
138.071	-28.2157	0.000538043
138.177	-28.2157	0.00034816
138.283	-28.2157	0.00023112
138.389	-28.2157	0.000202949
138.496	-28.2157	0.000210641
138.602	-28.2157	0.00021482
135.204	-28.3052	0.00045859
135.31	-28.3052	0.000594262
135.416	-28.3052	0.000722574
135.522	-28.3052	0.000861258
135.628	-28.3052	0.00101362
135.735	-28.3052	0.00114797
135.841	-28.3052	0.00124908
135.947	-28.3052	0.00131893
136.053	-28.3052	0.00135902
136.159	-28.3052	0.00136015
136.265	-28.3052	0.00132098
136.372	-28.3052	0.00122806
136.478	-28.3052	0.00107585
136.584	-28.3052	0.000872235
136.69	-28.3052	0.00069608
136.796	-28.3052	0.000629763
136.903	-28.3052	0.00067568
137.009	-28.3052	0.000774367
137.115	-28.3052	0.00086381
137.221	-28.3052	0.000934925
137.327	-28.3052	0.000985372
137.434	-28.3052	0.00100482
137.54	-28.3052	0.000997833
137.646	-28.3052	0.000967269
137.752	-28.3052	0.00090473
137.858	-28.3052	0.000806345
137.965	-28.3052	0.000658975
138.071	-28.3052	0.000474715
138.177	-28.3052	0.000309849
138.283	-28.3052	0.000247429
138.389	-28.3052	0.000250338
138.496	-28.3052	0.000283311
138.602	-28.3052	0.00029605
138.708	-28.3052	0.000266614
138.814	-28.3052	0.00022563
135.204	-28.3946	0.000384061
135.31	-28.3946	0.000522636
135.416	-28.3946	0.000665183
135.522	-28.3946	0.00080665
135.628	-28.3946	0.000957321
135.735	-28.3946	0.00110644
135.841	-28.3946	0.00123742
135.947	-28.3946	0.00133991
136.053	-28.3946	0.00140854
136.159	-28.3946	0.0014296
136.265	-28.3946	0.00140794
136.372	-28.3946	0.00133245
136.478	-28.3946	0.00119754
136.584	-28.3946	0.0010124
136.69	-28.3946	0.000802804
136.796	-28.3946	0.000654961
136.903	-28.3946	0.000615275
137.009	-28.3946	0.000663526
137.115	-28.3946	0.000754545
137.221	-28.3946	0.000828026
137.327	-28.3946	0.000864842
137.434	-28.3946	0.000880702
137.54	-28.3946	0.000850994
137.646	-28.3946	0.000807589
137.752	-28.3946	0.00073726
137.858	-28.3946	0.000640215
137.965	-28.3946	0.000506872
138.071	-28.3946	0.00036748
138.177	-28.3946	0.000286224
138.283	-28.3946	0.000289093
138.389	-28.3946	0.000342419
138.496	-28.3946	0.00040712
138.602	-28.3946	0.000425111
138.708	-28.3946	0.000391597
138.814	-28.3946	0.000331591
138.92	-28.3946	0.000286402
135.31	-28.4841	0.000432028
135.416	-28.4841	0.000590606
135.522	-28.4841	0.000743804
135.628	-28.4841	0.000892915
135.735	-28.4841	0.0010495
135.841	-28.4841	0.00120153
135.947	-28.4841	0.0013292
136.053	-28.4841	0.00141749
136.159	-28.4841	0.00145671
136.265	-28.4841	0.00145691
136.372	-28.4841	0.00140369
136.478	-28.4841	0.00129343
136.584	-28.4841	0.00112719
136.69	-28.4841	0.000910749
136.796	-28.4841	0.000708731
136.903	-28.4841	0.000586051
137.009	-28.4841	0.000565007
137.115	-28.4841	0.000617366
137.221	-28.4841	0.000671564
137.327	-28.4841	0.000698162
137.434	-28.4841	0.000703886
137.54	-28.4841	0.000660225
137.646	-28.4841	0.000603416
137.752	-28.4841	0.000532947
137.858	-28.4841	0.000434833
137.965	-28.4841	0.000343935
138.071	-28.4841	0.000284403
138.177	-28.4841	0.000284232
138.283	-28.4841	0.000344602
138.389	-28.4841	0.000436416
138.496	-28.4841	0.00053544
138.602	-28.4841	0.000567707
138.708	-28.4841	0.000534391
138.814	-28.4841	0.000474028
138.92	-28.4841	0.000422548
139.027	-28.4841	0.000341517
139.133	-28.4841	0.000251059
135.31	-28.5736	0.000333116
135.416	-28.5736	0.000489659
135.522	-28.5736	0.000663669
135.628	-28.5736	0.000829523
135.735	-28.5736	0.000992687
135.841	-28.5736	0.00115251
135.947	-28.5736	0.001289
136.053	-28.5736	0.00139067
136.159	-28.5736	0.00145074
136.265	-28.5736	0.00147396
136.372	-28.5736	0.00144476
136.478	-28.5736	0.00135857
136.584	-28.5736	0.00121163
136.69	-28.5736	0.00101894
136.796	-28.5736	0.000786561
136.903	-28.5736	0.000607601
137.009	-28.5736	0.00051286
137.115	-28.5736	0.000483048
137.221	-28.5736	0.000493478
137.327	-28.5736	0.000495125
137.434	-28.5736	0.000469524
137.54	-28.5736	0.000425584
137.646	-28.5736	0.000341021
137.752	-28.5736	0.000289881
137.858	-28.5736	0.000245578
137.965	-28.5736	0.000231836
138.071	-28.5736	0.000251216
138.177	-28.5736	0.000301787
138.283	-28.5736	0.000392126
138.389	-28.5736	0.000507449
138.496	-28.5736	0.000622455
138.602	-28.5736	0.000680282
138.708	-28.5736	0.000666296
138.814	-28.5736	0.000616272
138.92	-28.5736	0.00056835
139.027	-28.5736	0.000481675
139.133	-28.5736	0.000362427
139.239	-28.5736	0.000253234
135.416	-28.663	0.000384747
135.522	-28.663	0.000566676
135.628	-28.663	0.00075516
135.735	-28.663	0.00093202
135.841	-28.663	0.00109497
135.947	-28.663	0.00122918
136.053	-28.663	0.00133389
136.159	-28.663	0.00141229
136.265	-28.663	0.00145882
136.372	-28.663	0.00145474
136.478	-28.663	0.00139142
136.584	-28.663	0.0012726
136.69	-28.663	0.00109563
136.796	-28.663	0.000865198
136.903	-28.663	0.000668243
137.009	-28.663	0.000520833
137.115	-28.663	0.000424429
137.221	-28.663	0.000362109
137.327	-28.663	0.000313996
137.434	-28.663	0.000263489
137.54	-28.663	0.000208123
137.646	-28.663	0.000155106
137.752	-28.663	0.000138329
137.858	-28.663	0.000161236
137.965	-28.663	0.000201718
138.071	-28.663	0.000259721
138.177	-28.663	0.00032956
138.283	-28.663	0.000429579
138.389	-28.663	0.000550108
138.496	-28.663	0.000659158
138.602	-28.663	0.000736109
138.708	-28.663	0.00075978
138.814	-28.663	0.000740344
138.92	-28.663	0.00070535
139.027	-28.663	0.000618435
139.133	-28.663	0.000493567
139.239	-28.663	0.000356942
139.345	-28.663	0.000261624
135.522	-28.7525	0.000475845
135.628	-28.7525	0.000668817
135.735	-28.7525	0.000862921
135.841	-28.7525	0.00103457
135.947	-28.7525	0.00116805
136.053	-28.7525	0.00127123
136.159	-28.7525	0.00136421
136.265	-28.7525	0.00143004
136.372	-28.7525	0.00144679
136.478	-28.7525	0.00140206
136.584	-28.7525	0.00130699
136.69	-28.7525	0.00115885
136.796	-28.7525	0.000940333
136.903	-28.7525	0.000733545
137.009	-28.7525	0.000556778
137.115	-28.7525	0.000421298
137.221	-28.7525	0.000320196
137.327	-28.7525	0.000242165
137.434	-28.7525	0.000177159
137.54	-28.7525	0.000127033
137.646	-28.7525	9.92178e-05
137.752	-28.7525	0.000107751
137.858	-28.7525	0.000150261
137.965	-28.7525	0.000215813
138.071	-28.7525	0.000290269
138.177	-28.7525	0.000363754
138.283	-28.7525	0.000457584
138.389	-28.7525	0.000574968
138.496	-28.7525	0.00067676
138.602	-28.7525	0.00075448
138.708	-28.7525	0.000797872
138.814	-28.7525	0.000818729
138.92	-28.7525	0.00080672
139.027	-28.7525	0.00073613
139.133	-28.7525	0.000617102
139.239	-28.7525	0.000480149
139.345	-28.7525	0.000361404
139.451	-28.7525	0.000279312
139.558	-28.7525	0.000199353
135.522	-28.8419	0.000398591
135.628	-28.8419	0.000593596
135.735	-28.8419	0.000813275
135.841	-28.8419	0.00101095
135.947	-28.8419	0.00115586
136.053	-28.8419	0.00126101
136.159	-28.8419	0.00135201
136.265	-28.8419	0.0014163
136.372	-28.8419	0.00143313
136.478	-28.8419	0.00139972
136.584	-28.8419	0.00132047
136.69	-28.8419	0.00119305
136.796	-28.8419	0.000994435
136.903	-28.8419	0.000778577
137.009	-28.8419	0.000593399
137.115	-28.8419	0.000437426
137.221	-28.8419	0.000319039
137.327	-28.8419	0.000229771
137.434	-28.8419	0.000169838
137.54	-28.8419	0.000129564
137.646	-28.8419	0.000110991
137.752	-28.8419	0.000117845
137.858	-28.8419	0.00016873
137.965	-28.8419	0.000241649
138.071	-28.8419	0.000314496
138.177	-28.8419	0.00038547
138.283	-28.8419	0.000473236
138.389	-28.8419	0.000583398
138.496	-28.8419	0.000679377
138.602	-28.8419	0.000751094
138.708	-28.8419	0.000806118
138.814	-28.8419	0.000839917
138.92	-28.8419	0.000847892
139.027	-28.8419	0.000817921
139.133	-28.8419	0.0007327
139.239	-28.8419	0.000606045
139.345	-28.8419	0.000480751
139.451	-28.8419	0.000377991
139.558	-28.8419	0.000263129
139.664	-28.8419	0.000171756
135.628	-28.9314	0.000554775
135.735	-28.9314	0.000819151
135.841	-28.9314	0.00106043
135.947	-28.9314	0.00122712
136.053	-28.9314	0.00133626
136.159	-28.9314	0.00141618
136.265	-28.9314	0.00145814
136.372	-28.9314	0.00144505
136.478	-28.9314	0.00139195
136.584	-28.9314	0.00130421
136.69	-28.9314	0.00117969
136.796	-28.9314	0.00100169
136.903	-28.9314	0.000801132
137.009	-28.9314	0.00062559
137.115	-28.9314	0.000471714
137.221	-28.9314	0.000352703
137.327	-28.9314	0.000275934
137.434	-28.9314	0.000225426
137.54	-28.9314	0.000190811
137.646	-28.9314	0.000167808
137.752	-28.9314	0.000169327
137.858	-28.9314	0.000211593
137.965	-28.9314	0.000268956
138.071	-28.9314	0.00033369
138.177	-28.9314	0.00039607
138.283	-28.9314	0.000473704
138.389	-28.9314	0.000575699
138.496	-28.9314	0.000671709
138.602	-28.9314	0.000744287
138.708	-28.9314	0.000795237
138.814	-28.9314	0.000833542
138.92	-28.9314	0.000856043
139.027	-28.9314	0.000858404
139.133	-28.9314	0.0008218
139.239	-28.9314	0.000718741
139.345	-28.9314	0.000589946
139.451	-28.9314	0.000466742
139.558	-28.9314	0.000335124
139.664	-28.9314	0.000209303
139.77	-28.9314	0.000135457
139.876	-28.9314	9.48402e-05
135.735	-29.0209	0.000868122
135.841	-29.0209	0.00114946
135.947	-29.0209	0.00134219
136.053	-29.0209	0.00145433
136.159	-29.0209	0.00152108
136.265	-29.0209	0.00153807
136.372	-29.0209	0.00149368
136.478	-29.0209	0.00139626
136.584	-29.0209	0.00126712
136.69	-29.0209	0.0011319
136.796	-29.0209	0.000976262
136.903	-29.0209	0.000810847
137.009	-29.0209	0.000650728
137.115	-29.0209	0.000515037
137.221	-29.0209	0.000408889
137.327	-29.0209	0.000348159
137.434	-29.0209	0.000324873
137.54	-29.0209	0.000299861
137.646	-29.0209	0.000271309
137.752	-29.0209	0.000254474
137.858	-29.0209	0.000274752
137.965	-29.0209	0.000318313
138.071	-29.0209	0.000368956
138.177	-29.0209	0.000415659
138.283	-29.0209	0.000476698
138.389	-29.0209	0.000563016
138.496	-29.0209	0.000648515
138.602	-29.0209	0.000720705
138.708	-29.0209	0.000772989
138.814	-29.0209	0.000813391
138.92	-29.0209	0.000844458
139.027	-29.0209	0.000862911
139.133	-29.0209	0.000847477
139.239	-29.0209	0.000779094
139.345	-29.0209	0.00066028
139.451	-29.0209	0.000518989
139.558	-29.0209	0.000374836
139.664	-29.0209	0.000251983
139.77	-29.0209	0.000154531
139.876	-29.0209	0.000105924
139.982	-29.0209	8.60676e-05
135.735	-29.1103	0.000876431
135.841	-29.1103	0.00119086
135.947	-29.1103	0.00141711
136.053	-29.1103	0.00154475
136.159	-29.1103	0.0016017
136.265	-29.1103	0.00160223
136.372	-29.1103	0.00153526
136.478	-29.1103	0.00140461
136.584	-29.1103	0.00122914
136.69	-29.1103	0.00106932
136.796	-29.1103	0.000929406
136.903	-29.1103	0.000793314
137.009	-29.1103	0.000664707
137.115	-29.1103	0.000554138
137.221	-29.1103	0.000468351
137.327	-29.1103	0.000435311
137.434	-29.1103	0.000441839
137.54	-29.1103	0.00042358
137.646	-29.1103	0.000392328
137.752	-29.1103	0.000365525
137.858	-29.1103	0.00036451
137.965	-29.1103	0.000380558
138.071	-29.1103	0.00040865
138.177	-29.1103	0.000441717
138.283	-29.1103	0.000479813
138.389	-29.1103	0.000540874
138.496	-29.1103	0.00060788
138.602	-29.1103	0.000677257
138.708	-29.1103	0.000732247
138.814	-29.1103	0.000770438
138.92	-29.1103	0.000804352
139.027	-29.1103	0.000827237
139.133	-29.1103	0.00081851
139.239	-29.1103	0.000763657
139.345	-29.1103	0.000663868
139.451	-29.1103	0.0005235
139.558	-29.1103	0.000377204
139.664	-29.1103	0.000262404
139.77	-29.1103	0.000177729
139.876	-29.1103	0.000122477
139.982	-29.1103	9.4836e-05
135.841	-29.1998	0.00114179
135.947	-29.1998	0.00141121
136.053	-29.1998	0.00156625
136.159	-29.1998	0.00162065
136.265	-29.1998	0.00161013
136.372	-29.1998	0.00153547
136.478	-29.1998	0.00139595
136.584	-29.1998	0.00119804
136.69	-29.1998	0.00100238
136.796	-29.1998	0.000860282
136.903	-29.1998	0.000754824
137.009	-29.1998	0.000668922
137.115	-29.1998	0.00058382
137.221	-29.1998	0.0005286
137.327	-29.1998	0.000527459
137.434	-29.1998	0.00055188
137.54	-29.1998	0.000549743
137.646	-29.1998	0.000519637
137.752	-29.1998	0.000493022
137.858	-29.1998	0.000477208
137.965	-29.1998	0.000462322
138.071	-29.1998	0.000459712
138.177	-29.1998	0.000467089
138.283	-29.1998	0.000480169
138.389	-29.1998	0.000511012
138.496	-29.1998	0.000559149
138.602	-29.1998	0.000617254
138.708	-29.1998	0.000668614
138.814	-29.1998	0.00070175
138.92	-29.1998	0.000732868
139.027	-29.1998	0.000755497
139.133	-29.1998	0.000747531
139.239	-29.1998	0.000699015
139.345	-29.1998	0.000610912
139.451	-29.1998	0.000487627
139.558	-29.1998	0.000361128
139.664	-29.1998	0.000262008
139.77	-29.1998	0.000187216
139.876	-29.1998	0.000137203
139.982	-29.1998	0.000105958
135.947	-29.2893	0.00133733
136.053	-29.2893	0.00151661
136.159	-29.2893	0.00157993
136.265	-29.2893	0.00156053
136.372	-29.2893	0.00148482
136.478	-29.2893	0.001355
136.584	-29.2893	0.00117029
136.69	-29.2893	0.000946113
136.796	-29.2893	0.000793182
136.903	-29.2893	0.000715824
137.009	-29.2893	0.000658257
137.115	-29.2893	0.000604623
137.221	-29.2893	0.0005845
137.327	-29.2893	0.000610875
137.434	-29.2893	0.000649399
137.54	-29.2893	0.00066043
137.646	-29.2893	0.000654145
137.752	-29.2893	0.000630729
137.858	-29.2893	0.000604685
137.965	-29.2893	0.0005666
138.071	-29.2893	0.000530347
138.177	-29.2893	0.000502524
138.283	-29.2893	0.000484484
138.389	-29.2893	0.000481354
138.496	-29.2893	0.000504289
138.602	-29.2893	0.000548268
138.708	-29.2893	0.000589117
138.814	-29.2893	0.000612867
138.92	-29.2893	0.000637675
139.027	-29.2893	0.000657883
139.133	-29.2893	0.000650476
139.239	-29.2893	0.000608471
139.345	-29.2893	0.000538896
139.451	-29.2893	0.000442672
139.558	-29.2893	0.000344888
139.664	-29.2893	0.000257955
139.77	-29.2893	0.00019328
139.876	-29.2893	0.000147005
139.982	-29.2893	0.000117592
135.947	-29.3787	0.00117434
136.053	-29.3787	0.00138557
136.159	-29.3787	0.00147757
136.265	-29.3787	0.00146725
136.372	-29.3787	0.00138999
136.478	-29.3787	0.00126927
136.584	-29.3787	0.00110012
136.69	-29.3787	0.00088239
136.796	-29.3787	0.000721788
136.903	-29.3787	0.000657671
137.009	-29.3787	0.000630727
137.115	-29.3787	0.000612943
137.221	-29.3787	0.000627099
137.327	-29.3787	0.000675765
137.434	-29.3787	0.00072968
137.54	-29.3787	0.000761313
137.646	-29.3787	0.000771364
137.752	-29.3787	0.000757603
137.858	-29.3787	0.000716859
137.965	-29.3787	0.000663844
138.071	-29.3787	0.000601902
138.177	-29.3787	0.000542526
138.283	-29.3787	0.000492849
138.389	-29.3787	0.000457737
138.496	-29.3787	0.000450438
138.602	-29.3787	0.000477114
138.708	-29.3787	0.000496574
138.814	-29.3787	0.000511211
138.92	-29.3787	0.000529112
139.027	-29.3787	0.000548249
139.133	-29.3787	0.000540969
139.239	-29.3787	0.000511877
139.345	-29.3787	0.000466186
139.451	-29.3787	0.00039814
139.558	-29.3787	0.00032276
139.664	-29.3787	0.00025438
139.77	-29.3787	0.000196807
139.876	-29.3787	0.000154745
139.982	-29.3787	0.000128637
136.053	-29.4682	0.00118458
136.159	-29.4682	0.00131853
136.265	-29.4682	0.00133186
136.372	-29.4682	0.00125861
136.478	-29.4682	0.00114349
136.584	-29.4682	0.000992012
136.69	-29.4682	0.000803506
136.796	-29.4682	0.000636119
136.903	-29.4682	0.000582632
137.009	-29.4682	0.000588761
137.115	-29.4682	0.000609088
137.221	-29.4682	0.000646999
137.327	-29.4682	0.000722247
137.434	-29.4682	0.000796572
137.54	-29.4682	0.000844847
137.646	-29.4682	0.000863143
137.752	-29.4682	0.000848212
137.858	-29.4682	0.000804449
137.965	-29.4682	0.000732454
138.071	-29.4682	0.000654042
138.177	-29.4682	0.000574588
138.283	-29.4682	0.000492272
138.389	-29.4682	0.00043206
138.496	-29.4682	0.000402297
138.602	-29.4682	0.000399154
138.708	-29.4682	0.000395765
138.814	-29.4682	0.000395431
138.92	-29.4682	0.000406037
139.027	-29.4682	0.000425964
139.133	-29.4682	0.000433071
139.239	-29.4682	0.000419593
139.345	-29.4682	0.000399714
139.451	-29.4682	0.000358732
139.558	-29.4682	0.000302543
139.664	-29.4682	0.000247368
139.77	-29.4682	0.000197929
139.876	-29.4682	0.000160925
139.982	-29.4682	0.000139366
136.053	-29.5577	0.000989654
136.159	-29.5577	0.00113402
136.265	-29.5577	0.00116609
136.372	-29.5577	0.00110793
136.478	-29.5577	0.00100032
136.584	-29.5577	0.000859917
136.69	-29.5577	0.000685845
136.796	-29.5577	0.000534942
136.903	-29.5577	0.000504261
137.009	-29.5577	0.000541823
137.115	-29.5577	0.000590186
137.221	-29.5577	0.000658947
137.327	-29.5577	0.000759584
137.434	-29.5577	0.000846022
137.54	-29.5577	0.00090157
137.646	-29.5577	0.000922209
137.752	-29.5577	0.000906684
137.858	-29.5577	0.000856781
137.965	-29.5577	0.000779051
138.071	-29.5577	0.000680553
138.177	-29.5577	0.00058654
138.283	-29.5577	0.000490691
138.389	-29.5577	0.000400376
138.496	-29.5577	0.000347694
138.602	-29.5577	0.000323328
138.708	-29.5577	0.000304873
138.814	-29.5577	0.000283659
138.92	-29.5577	0.000288637
139.027	-29.5577	0.000311967
139.133	-29.5577	0.000334646
139.239	-29.5577	0.000345392
139.345	-29.5577	0.00034799
139.451	-29.5577	0.000325448
139.558	-29.5577	0.000284166
139.664	-29.5577	0.000239423
139.77	-29.5577	0.000197929
139.876	-29.5577	0.000164714
139.982	-29.5577	0.000147748
136.159	-29.6471	0.000929878
136.265	-29.6471	0.000983884
136.372	-29.6471	0.000947943
136.478	-29.6471	0.000854846
136.584	-29.6471	0.000724346
136.69	-29.6471	0.00056872
136.796	-29.6471	0.000450578
136.903	-29.6471	0.000441736
137.009	-29.6471	0.000505328
137.115	-29.6471	0.000579503
137.221	-29.6471	0.000670604
137.327	-29.6471	0.000774654
137.434	-29.6471	0.000870171
137.54	-29.6471	0.000929671
137.646	-29.6471	0.000953992
137.752	-29.6471	0.000943831
137.858	-29.6471	0.000896505
137.965	-29.6471	0.000815568
138.071	-29.6471	0.000717119
138.177	-29.6471	0.000614631
138.283	-29.6471	0.000499974
138.389	-29.6471	0.000393998
138.496	-29.6471	0.000317969
138.602	-29.6471	0.000274945
138.708	-29.6471	0.000234788
138.814	-29.6471	0.000205013
138.92	-29.6471	0.000203364
139.027	-29.6471	0.000227693
139.133	-29.6471	0.000263497
139.239	-29.6471	0.000293806
139.345	-29.6471	0.00030819
139.451	-29.6471	0.000299387
139.558	-29.6471	0.000269028
139.664	-29.6471	0.000231579
139.77	-29.6471	0.000195159
139.876	-29.6471	0.000167457
139.982	-29.6471	0.000154004
136.265	-29.7366	0.000810432
136.372	-29.7366	0.000801407
136.478	-29.7366	0.000724348
136.584	-29.7366	0.000603338
136.69	-29.7366	0.000464071
136.796	-29.7366	0.000368754
136.903	-29.7366	0.000390201
137.009	-29.7366	0.000471128
137.115	-29.7366	0.000564791
137.221	-29.7366	0.000660795
137.327	-29.7366	0.000769425
137.434	-29.7366	0.000868736
137.54	-29.7366	0.000944173
137.646	-29.7366	0.000983793
137.752	-29.7366	0.000991106
137.858	-29.7366	0.000963604
137.965	-29.7366	0.000900161
138.071	-29.7366	0.000811452
138.177	-29.7366	0.000708116
138.283	-29.7366	0.000583623
138.389	-29.7366	0.000459299
138.496	-29.7366	0.00035068
138.602	-29.7366	0.000286747
138.708	-29.7366	0.000225236
138.814	-29.7366	0.000183396
138.92	-29.7366	0.000174101
139.027	-29.7366	0.000188782
139.133	-29.7366	0.000219285
139.239	-29.7366	0.000254774
139.345	-29.7366	0.000280362
139.451	-29.7366	0.000281382
139.558	-29.7366	0.000259367
139.664	-29.7366	0.000227473
139.77	-29.7366	0.000196264
139.876	-29.7366	0.000170223
139.982	-29.7366	0.000159147
136.265	-29.826	0.000663927
136.372	-29.826	0.000665284
136.478	-29.826	0.000592901
136.584	-29.826	0.0004709
136.69	-29.826	0.000349243
136.796	-29.826	0.000289328
136.903	-29.826	0.000333203
137.009	-29.826	0.00043076
137.115	-29.826	0.000536853
137.221	-29.826	0.00064154
137.327	-29.826	0.000749596
137.434	-29.826	0.000863676
137.54	-29.826	0.000959942
137.646	-29.826	0.00102768
137.752	-29.826	0.00106599
137.858	-29.826	0.00106842
137.965	-29.826	0.00103942
138.071	-29.826	0.000979539
138.177	-29.826	0.000879479
138.283	-29.826	0.000732444
138.389	-29.826	0.000576501
138.496	-29.826	0.000452366
138.602	-29.826	0.000368145
138.708	-29.826	0.000284698
138.814	-29.826	0.000223031
138.92	-29.826	0.000194818
139.027	-29.826	0.000185071
139.133	-29.826	0.00019613
139.239	-29.826	0.000225207
139.345	-29.826	0.000256079
139.451	-29.826	0.000269156
139.558	-29.826	0.000253922
139.664	-29.826	0.000226282
139.77	-29.826	0.000196507
139.876	-29.826	0.000172618
139.982	-29.826	0.000163102
136.372	-29.9155	0.000501759
136.478	-29.9155	0.000431399
136.584	-29.9155	0.000332587
136.69	-29.9155	0.000237147
136.796	-29.9155	0.000216463
136.903	-29.9155	0.000263995
137.009	-29.9155	0.000365099
137.115	-29.9155	0.000483541
137.221	-29.9155	0.000605841
137.327	-29.9155	0.000731064
137.434	-29.9155	0.000848007
137.54	-29.9155	0.000970599
137.646	-29.9155	0.00107561
137.752	-29.9155	0.00116278
137.858	-29.9155	0.00123585
137.965	-29.9155	0.00127616
138.071	-29.9155	0.00128652
138.177	-29.9155	0.00121105
138.283	-29.9155	0.00103832
138.389	-29.9155	0.00082092
138.496	-29.9155	0.000643233
138.602	-29.9155	0.000514051
138.708	-29.9155	0.000398685
138.814	-29.9155	0.000315594
138.92	-29.9155	0.000260067
139.027	-29.9155	0.000216602
139.133	-29.9155	0.000198779
139.239	-29.9155	0.000211726
139.345	-29.9155	0.000237753
139.451	-29.9155	0.000249961
139.558	-29.9155	0.000237793
139.664	-29.9155	0.000214364
139.77	-29.9155	0.000188887
139.876	-29.9155	0.000169588
139.982	-29.9155	0.000165055
136.478	-30.005	0.000279582
136.584	-30.005	0.000212389
136.69	-30.005	0.000177789
136.796	-30.005	0.000164135
136.903	-30.005	0.000214241
137.009	-30.005	0.000294429
137.115	-30.005	0.000409274
137.221	-30.005	0.000553884
137.327	-30.005	0.000700179
137.434	-30.005	0.000836625
137.54	-30.005	0.00097951
137.646	-30.005	0.00114459
137.752	-30.005	0.00137389
137.858	-30.005	0.00162712
137.965	-30.005	0.00181667
138.071	-30.005	0.00191048
138.177	-30.005	0.00187609
138.283	-30.005	0.00169397
138.389	-30.005	0.00140368
138.496	-30.005	0.00106659
138.602	-30.005	0.000808551
138.708	-30.005	0.00058721
138.814	-30.005	0.000447871
138.92	-30.005	0.000357772
139.027	-30.005	0.000294465
139.133	-30.005	0.00024749
139.239	-30.005	0.000227749
139.345	-30.005	0.000228386
139.451	-30.005	0.000227886
139.558	-30.005	0.00021376
139.664	-30.005	0.000191934
139.77	-30.005	0.000173481
139.876	-30.005	0.000162338
139.982	-30.005	0.000165562
136.478	-30.0944	0.000178224
136.584	-30.0944	0.000151487
136.69	-30.0944	0.000132647
136.796	-30.0944	0.000139767
136.903	-30.0944	0.00017672
137.009	-30.0944	0.00023422
137.115	-30.0944	0.000325555
137.221	-30.0944	0.000481709
137.327	-30.0944	0.000644901
137.434	-30.0944	0.000814284
137.54	-30.0944	0.00101336
137.646	-30.0944	0.00133558
137.752	-30.0944	0.00177695
137.858	-30.0944	0.00220454
137.965	-30.0944	0.00249994
138.071	-30.0944	0.00265488
138.177	-30.0944	0.00265768
138.283	-30.0944	0.002515
138.389	-30.0944	0.00222932
138.496	-30.0944	0.00181272
138.602	-30.0944	0.00137449
138.708	-30.0944	0.000950244
138.814	-30.0944	0.000628154
138.92	-30.0944	0.000475644
139.027	-30.0944	0.000388463
139.133	-30.0944	0.000321221
139.239	-30.0944	0.000268109
139.345	-30.0944	0.000235175
139.451	-30.0944	0.000211858
139.558	-30.0944	0.000189241
139.664	-30.0944	0.000171619
139.77	-30.0944	0.000159577
139.876	-30.0944	0.000158237
139.982	-30.0944	0.000169952
136.584	-30.1839	0.000114872
136.69	-30.1839	9.39988e-05
136.796	-30.1839	0.0001312
136.903	-30.1839	0.000153919
137.009	-30.1839	0.00018645
137.115	-30.1839	0.000262696
137.221	-30.1839	0.00038252
137.327	-30.1839	0.000565681
137.434	-30.1839	0.000783233
137.54	-30.1839	0.00113158
137.646	-30.1839	0.00164201
137.752	-30.1839	0.00224629
137.858	-30.1839	0.00277827
137.965	-30.1839	0.00313022
138.071	-30.1839	0.00331756
138.177	-30.1839	0.00336677
138.283	-30.1839	0.00328326
138.389	-30.1839	0.00305064
138.496	-30.1839	0.00265826
138.602	-30.1839	0.00216745
138.708	-30.1839	0.00154588
138.814	-30.1839	0.000980802
138.92	-30.1839	0.000633731
139.027	-30.1839	0.00048059
139.133	-30.1839	0.000391404
139.239	-30.1839	0.00031054
139.345	-30.1839	0.000250127
139.451	-30.1839	0.000208323
139.558	-30.1839	0.000178594
139.664	-30.1839	0.000160825
139.77	-30.1839	0.00015615
139.876	-30.1839	0.000161229
139.982	-30.1839	0.000177644
136.584	-30.2734	8.07401e-05
136.903	-30.2734	0.00013387
137.009	-30.2734	0.000163858
137.115	-30.2734	0.000218004
137.221	-30.2734	0.000311754
137.327	-30.2734	0.000479827
137.434	-30.2734	0.000784697
137.54	-30.2734	0.00131864
137.646	-30.2734	0.00199047
137.752	-30.2734	0.00270255
137.858	-30.2734	0.00322066
137.965	-30.2734	0.00363089
138.071	-30.2734	0.00388617
138.177	-30.2734	0.00398894
138.283	-30.2734	0.00394712
138.389	-30.2734	0.00374605
138.496	-30.2734	0.00337462
138.602	-30.2734	0.00282852
138.708	-30.2734	0.00220718
138.814	-30.2734	0.00147374
138.92	-30.2734	0.000897259
139.027	-30.2734	0.000609358
139.133	-30.2734	0.000470612
139.239	-30.2734	0.000357265
139.345	-30.2734	0.000273373
139.451	-30.2734	0.000217582
139.558	-30.2734	0.000183587
139.664	-30.2734	0.0001641
139.77	-30.2734	0.000159634
139.876	-30.2734	0.000167084
139.982	-30.2734	0.000183547
136.903	-30.3628	7.9991e-05
137.009	-30.3628	0.000138131
137.115	-30.3628	0.000183786
137.221	-30.3628	0.000274939
137.327	-30.3628	0.000439769
137.434	-30.3628	0.000832865
137.54	-30.3628	0.0015504
137.646	-30.3628	0.0023308
137.752	-30.3628	0.00300317
137.858	-30.3628	0.00359238
137.965	-30.3628	0.00402248
138.071	-30.3628	0.00434374
138.177	-30.3628	0.00449338
138.283	-30.3628	0.00447919
138.389	-30.3628	0.00429679
138.496	-30.3628	0.00394025
138.602	-30.3628	0.00341237
138.708	-30.3628	0.00280644
138.814	-30.3628	0.00201465
138.92	-30.3628	0.00127543
139.027	-30.3628	0.000806515
139.133	-30.3628	0.000588042
139.239	-30.3628	0.000438755
139.345	-30.3628	0.0003175
139.451	-30.3628	0.000240706
139.558	-30.3628	0.000198227
139.664	-30.3628	0.000173816
139.77	-30.3628	0.000165078
139.876	-30.3628	0.000170444
139.982	-30.3628	0.000186817
136.796	-30.4523	7.57206e-05
136.903	-30.4523	8.29179e-05
137.009	-30.4523	0.000107422
137.115	-30.4523	0.000167898
137.221	-30.4523	0.000254316
137.327	-30.4523	0.000437749
137.434	-30.4523	0.000919902
137.54	-30.4523	0.00168777
137.646	-30.4523	0.00257766
137.752	-30.4523	0.00325836
137.858	-30.4523	0.0038686
137.965	-30.4523	0.00433595
138.071	-30.4523	0.00466848
138.177	-30.4523	0.00486019
138.283	-30.4523	0.00489784
138.389	-30.4523	0.00473432
138.496	-30.4523	0.00441515
138.602	-30.4523	0.00392708
138.708	-30.4523	0.00334679
138.814	-30.4523	0.00256259
138.92	-30.4523	0.00172363
139.027	-30.4523	0.00109085
139.133	-30.4523	0.000796084
139.239	-30.4523	0.000581549
139.345	-30.4523	0.000400175
139.451	-30.4523	0.000281551
139.558	-30.4523	0.000217736
139.664	-30.4523	0.000182702
139.77	-30.4523	0.000168364
139.876	-30.4523	0.000172093
139.982	-30.4523	0.000187318
136.796	-30.5417	8.03596e-05
136.903	-30.5417	8.5031e-05
137.009	-30.5417	0.000106421
137.115	-30.5417	0.000162862
137.221	-30.5417	0.000255443
137.327	-30.5417	0.00046484
137.434	-30.5417	0.000997612
137.54	-30.5417	0.00181805
137.646	-30.5417	0.00264959
137.752	-30.5417	0.0034019
137.858	-30.5417	0.00401141
137.965	-30.5417	0.00453632
138.071	-30.5417	0.00489761
138.177	-30.5417	0.00512464
138.283	-30.5417	0.00520919
138.389	-30.5417	0.00513665
138.496	-30.5417	0.00485213
138.602	-30.5417	0.00440717
138.708	-30.5417	0.00381269
138.814	-30.5417	0.00305938
138.92	-30.5417	0.00216659
139.027	-30.5417	0.0014403
139.133	-30.5417	0.00105996
139.239	-30.5417	0.000797881
139.345	-30.5417	0.000554872
139.451	-30.5417	0.000354813
139.558	-30.5417	0.000248395
139.664	-30.5417	0.000192964
139.77	-30.5417	0.000169913
139.876	-30.5417	0.000171236
139.982	-30.5417	0.00018585
136.903	-30.6312	9.14045e-05
137.009	-30.6312	0.000112752
137.115	-30.6312	0.000164857
137.221	-30.6312	0.000264662
137.327	-30.6312	0.000483657
137.434	-30.6312	0.0010284
137.54	-30.6312	0.00186458
137.646	-30.6312	0.00268332
137.752	-30.6312	0.00339649
137.858	-30.6312	0.00408505
137.965	-30.6312	0.00462049
138.071	-30.6312	0.00504076
138.177	-30.6312	0.00532948
138.283	-30.6312	0.00549133
138.389	-30.6312	0.00549384
138.496	-30.6312	0.00531328
138.602	-30.6312	0.00491334
138.708	-30.6312	0.00425763
138.814	-30.6312	0.00351716
138.92	-30.6312	0.00256793
139.027	-30.6312	0.00176457
139.133	-30.6312	0.00131963
139.239	-30.6312	0.00102586
139.345	-30.6312	0.000740154
139.451	-30.6312	0.000473859
139.558	-30.6312	0.000299594
139.664	-30.6312	0.00021057
139.77	-30.6312	0.000171773
139.876	-30.6312	0.000168561
139.982	-30.6312	0.000183198
137.009	-30.7207	0.000119124
137.115	-30.7207	0.000167622
137.221	-30.7207	0.000253619
137.327	-30.7207	0.000451913
137.434	-30.7207	0.000967237
137.54	-30.7207	0.00179458
137.646	-30.7207	0.00261676
137.752	-30.7207	0.00334581
137.858	-30.7207	0.00403418
137.965	-30.7207	0.00466651
138.071	-30.7207	0.00515018
138.177	-30.7207	0.00552047
138.283	-30.7207	0.00578371
138.389	-30.7207	0.00589267
138.496	-30.7207	0.00580112
138.602	-30.7207	0.00549747
138.708	-30.7207	0.00494315
138.814	-30.7207	0.00416918
138.92	-30.7207	0.00303188
139.027	-30.7207	0.00212588
139.133	-30.7207	0.0016008
139.239	-30.7207	0.00125248
139.345	-30.7207	0.000925888
139.451	-30.7207	0.000606232
139.558	-30.7207	0.000376214
139.664	-30.7207	0.000236934
139.77	-30.7207	0.000176721
139.876	-30.7207	0.000165781
139.982	-30.7207	0.000178677
137.009	-30.8101	0.000120057
137.115	-30.8101	0.000162776
137.221	-30.8101	0.000228151
137.327	-30.8101	0.000373719
137.434	-30.8101	0.000814246
137.54	-30.8101	0.00159228
137.646	-30.8101	0.00244439
137.752	-30.8101	0.00320965
137.858	-30.8101	0.00394176
137.965	-30.8101	0.00459709
138.071	-30.8101	0.00518712
138.177	-30.8101	0.00569462
138.283	-30.8101	0.00614965
138.389	-30.8101	0.00649882
138.496	-30.8101	0.00659911
138.602	-30.8101	0.00638862
138.708	-30.8101	0.00585365
138.814	-30.8101	0.00510599
138.92	-30.8101	0.00396415
139.027	-30.8101	0.00281204
139.133	-30.8101	0.00203936
139.239	-30.8101	0.00154307
139.345	-30.8101	0.00112332
139.451	-30.8101	0.000740351
139.558	-30.8101	0.000458455
139.664	-30.8101	0.000275507
139.77	-30.8101	0.000189047
139.876	-30.8101	0.000163156
139.982	-30.8101	0.000172393
137.115	-30.8996	0.000150216
137.221	-30.8996	0.000197819
137.327	-30.8996	0.000294149
137.434	-30.8996	0.000616391
137.54	-30.8996	0.00128145
137.646	-30.8996	0.00216184
137.752	-30.8996	0.00297825
137.858	-30.8996	0.00374582
137.965	-30.8996	0.0044647
138.071	-30.8996	0.00517312
138.177	-30.8996	0.00598867
138.283	-30.8996	0.00680529
138.389	-30.8996	0.00742054
138.496	-30.8996	0.00768605
138.602	-30.8996	0.00752712
138.708	-30.8996	0.00695257
138.814	-30.8996	0.00610738
138.92	-30.8996	0.00499343
139.027	-30.8996	0.00385819
139.133	-30.8996	0.00293833
139.239	-30.8996	0.00210122
139.345	-30.8996	0.00142943
139.451	-30.8996	0.000885164
139.558	-30.8996	0.000540074
139.664	-30.8996	0.000324355
139.77	-30.8996	0.000203541
139.876	-30.8996	0.000160805
139.982	-30.8996	0.000164721
137.221	-30.9891	0.000171125
137.327	-30.9891	0.000231433
137.434	-30.9891	0.000420059
137.54	-30.9891	0.000922017
137.646	-30.9891	0.00174815
137.752	-30.9891	0.00263424
137.858	-30.9891	0.00345943
137.965	-30.9891	0.00431508
138.071	-30.9891	0.00534637
138.177	-30.9891	0.00654591
138.283	-30.9891	0.00782059
138.389	-30.9891	0.00865472
138.496	-30.9891	0.00902636
138.602	-30.9891	0.0088997
138.708	-30.9891	0.00829798
138.814	-30.9891	0.00726911
138.92	-30.9891	0.00614382
139.027	-30.9891	0.00499801
139.133	-30.9891	0.00392847
139.239	-30.9891	0.00289369
139.345	-30.9891	0.00191025
139.451	-30.9891	0.00110084
139.558	-30.9891	0.000651003
139.664	-30.9891	0.000380611
139.77	-30.9891	0.000224066
139.876	-30.9891	0.000160646
139.982	-30.9891	0.000154598
137.221	-31.0785	0.000151812
137.327	-31.0785	0.00019203
137.434	-31.0785	0.000295513
137.54	-31.0785	0.000621363
137.646	-31.0785	0.00128278
137.752	-31.0785	0.00218954
137.858	-31.0785	0.00314197
137.965	-31.0785	0.00428754
138.071	-31.0785	0.00575402
138.177	-31.0785	0.0073127
138.283	-31.0785	0.00867399
138.389	-31.0785	0.00983017
138.496	-31.0785	0.0102776
138.602	-31.0785	0.0102204
138.708	-31.0785	0.00965056
138.814	-31.0785	0.00862522
138.92	-31.0785	0.00754298
139.027	-31.0785	0.00625468
139.133	-31.0785	0.00495623
139.239	-31.0785	0.00371426
139.345	-31.0785	0.00248829
139.451	-31.0785	0.0014129
139.558	-31.0785	0.000781094
139.664	-31.0785	0.000447927
139.77	-31.0785	0.000250451
139.876	-31.0785	0.00016529
139.982	-31.0785	0.00014667
137.327	-31.168	0.000164423
137.434	-31.168	0.000237649
137.54	-31.168	0.0004441
137.646	-31.168	0.000928498
137.752	-31.168	0.00173161
137.858	-31.168	0.00285401
137.965	-31.168	0.00439744
138.071	-31.168	0.00624491
138.177	-31.168	0.00805205
138.283	-31.168	0.00952592
138.389	-31.168	0.0106287
138.496	-31.168	0.0112276
138.602	-31.168	0.0112364
138.708	-31.168	0.0107569
138.814	-31.168	0.00989559
138.92	-31.168	0.00887358
139.027	-31.168	0.00755391
139.133	-31.168	0.00601208
139.239	-31.168	0.00452392
139.345	-31.168	0.00311829
139.451	-31.168	0.00180295
139.558	-31.168	0.0009677
139.664	-31.168	0.000533174
139.77	-31.168	0.000300838
139.876	-31.168	0.000187671
139.982	-31.168	0.000148809
137.327	-31.2575	0.000139383
137.434	-31.2575	0.000208783
137.54	-31.2575	0.000377463
137.646	-31.2575	0.000758766
137.752	-31.2575	0.00146412
137.858	-31.2575	0.00270591
137.965	-31.2575	0.00453992
138.071	-31.2575	0.00667276
138.177	-31.2575	0.00861341
138.283	-31.2575	0.0101296
138.389	-31.2575	0.0112077
138.496	-31.2575	0.0118616
138.602	-31.2575	0.0119649
138.708	-31.2575	0.0116602
138.814	-31.2575	0.0109719
138.92	-31.2575	0.0100371
139.027	-31.2575	0.00868797
139.133	-31.2575	0.00701887
139.239	-31.2575	0.0052973
139.345	-31.2575	0.00371883
139.451	-31.2575	0.00222288
139.558	-31.2575	0.00119131
139.664	-31.2575	0.000653078
139.77	-31.2575	0.000372305
139.876	-31.2575	0.000224955
139.982	-31.2575	0.000165836
137.434	-31.3469	0.000197284
137.54	-31.3469	0.000388785
137.646	-31.3469	0.000785076
137.752	-31.3469	0.00156292
137.858	-31.3469	0.00294538
137.965	-31.3469	0.00495278
138.071	-31.3469	0.00717529
138.177	-31.3469	0.00913014
138.283	-31.3469	0.0106686
138.389	-31.3469	0.0118018
138.496	-31.3469	0.0125563
138.602	-31.3469	0.0127833
138.708	-31.3469	0.0125511
138.814	-31.3469	0.0119072
138.92	-31.3469	0.0109285
139.027	-31.3469	0.0095223
139.133	-31.3469	0.00780571
139.239	-31.3469	0.00597601
139.345	-31.3469	0.00419981
139.451	-31.3469	0.00261376
139.558	-31.3469	0.0014678
139.664	-31.3469	0.00082185
139.77	-31.3469	0.000478256
139.876	-31.3469	0.000283753
139.982	-31.3469	0.000193016
137.54	-31.4364	0.000498463
137.646	-31.4364	0.00107114
137.752	-31.4364	0.00210199
137.858	-31.4364	0.00375566
137.965	-31.4364	0.00593753
138.071	-31.4364	0.00815659
138.177	-31.4364	0.0100447
138.283	-31.4364	0.011507
138.389	-31.4364	0.0126053
138.496	-31.4364	0.0133223
138.602	-31.4364	0.0136351
138.708	-31.4364	0.0134171
138.814	-31.4364	0.0127232
138.92	-31.4364	0.0115932
139.027	-31.4364	0.0100691
139.133	-31.4364	0.00840769
139.239	-31.4364	0.00651616
139.345	-31.4364	0.00457246
139.451	-31.4364	0.00286861
139.558	-31.4364	0.00160367
139.664	-31.4364	0.000927999
139.77	-31.4364	0.000559605
139.876	-31.4364	0.000338255
139.982	-31.4364	0.000217633
137.54	-31.5258	0.000811923
137.646	-31.5258	0.00165023
137.752	-31.5258	0.00298231
137.858	-31.5258	0.00488894
137.965	-31.5258	0.0071438
138.071	-31.5258	0.00935699
138.177	-31.5258	0.0111891
138.283	-31.5258	0.0125576
138.389	-31.5258	0.0135001
138.496	-31.5258	0.0140582
138.602	-31.5258	0.0142501
138.708	-31.5258	0.0140405
138.814	-31.5258	0.0132965
138.92	-31.5258	0.0121797
139.027	-31.5258	0.0105751
139.133	-31.5258	0.00863988
139.239	-31.5258	0.00665728
139.345	-31.5258	0.00461997
139.451	-31.5258	0.00285477
139.558	-31.5258	0.00162489
139.664	-31.5258	0.000980015
139.77	-31.5258	0.000614444
139.876	-31.5258	0.000379107
139.982	-31.5258	0.000242049
137.327	-31.6153	0.000441797
137.434	-31.6153	0.000718403
137.54	-31.6153	0.00135567
137.646	-31.6153	0.00241762
137.752	-31.6153	0.00388141
137.858	-31.6153	0.00586181
137.965	-31.6153	0.00812064
138.071	-31.6153	0.0103157
138.177	-31.6153	0.012121
138.283	-31.6153	0.0134246
138.389	-31.6153	0.0142551
138.496	-31.6153	0.0146454
138.602	-31.6153	0.0146643
138.708	-31.6153	0.0143768
138.814	-31.6153	0.0136185
138.92	-31.6153	0.0123797
139.027	-31.6153	0.0107314
139.133	-31.6153	0.00871253
139.239	-31.6153	0.0065057
139.345	-31.6153	0.0044098
139.451	-31.6153	0.00268141
139.558	-31.6153	0.00156752
139.664	-31.6153	0.000993479
139.77	-31.6153	0.000644608
139.876	-31.6153	0.000404776
139.982	-31.6153	0.000257035
137.221	-31.7048	0.000325296
137.327	-31.7048	0.000653708
137.434	-31.7048	0.00120149
137.54	-31.7048	0.00202517
137.646	-31.7048	0.00303199
137.752	-31.7048	0.00459394
137.858	-31.7048	0.00656967
137.965	-31.7048	0.00874353
138.071	-31.7048	0.0108576
138.177	-31.7048	0.0126455
138.283	-31.7048	0.013945
138.389	-31.7048	0.0147314
138.496	-31.7048	0.0150062
138.602	-31.7048	0.0148652
138.708	-31.7048	0.0144012
138.814	-31.7048	0.0135659
138.92	-31.7048	0.0122984
139.027	-31.7048	0.010595
139.133	-31.7048	0.00852835
139.239	-31.7048	0.00621067
139.345	-31.7048	0.00399076
139.451	-31.7048	0.00241813
139.558	-31.7048	0.00149164
139.664	-31.7048	0.000987385
139.77	-31.7048	0.000655056
139.876	-31.7048	0.000414562
139.982	-31.7048	0.000262957
137.009	-31.7942	0.000161097
137.115	-31.7942	0.000263091
137.221	-31.7942	0.000470058
137.327	-31.7942	0.000952314
137.434	-31.7942	0.00176899
137.54	-31.7942	0.00259308
137.646	-31.7942	0.00360845
137.752	-31.7942	0.00509712
137.858	-31.7942	0.0071512
137.965	-31.7942	0.0091952
138.071	-31.7942	0.0111446
138.177	-31.7942	0.0128548
138.283	-31.7942	0.0141405
138.389	-31.7942	0.0148678
138.496	-31.7942	0.0151082
138.602	-31.7942	0.0148359
138.708	-31.7942	0.0141773
138.814	-31.7942	0.0131909
138.92	-31.7942	0.0118735
139.027	-31.7942	0.0101394
139.133	-31.7942	0.00802588
139.239	-31.7942	0.00561912
139.345	-31.7942	0.00356871
139.451	-31.7942	0.00220098
139.558	-31.7942	0.00140341
139.664	-31.7942	0.000967906
139.77	-31.7942	0.000648183
139.876	-31.7942	0.000411392
139.982	-31.7942	0.00026064
137.009	-31.8837	0.000299539
137.115	-31.8837	0.000448465
137.221	-31.8837	0.000786182
137.327	-31.8837	0.00144607
137.434	-31.8837	0.00228159
137.54	-31.8837	0.00315519
137.646	-31.8837	0.00426087
137.752	-31.8837	0.00580225
137.858	-31.8837	0.00770846
137.965	-31.8837	0.00971796
138.071	-31.8837	0.0114699
138.177	-31.8837	0.0130052
138.283	-31.8837	0.0141087
138.389	-31.8837	0.014765
138.496	-31.8837	0.0149006
138.602	-31.8837	0.0145066
138.708	-31.8837	0.0136891
138.814	-31.8837	0.0126145
138.92	-31.8837	0.0111892
139.027	-31.8837	0.00941824
139.133	-31.8837	0.00727452
139.239	-31.8837	0.00490031
139.345	-31.8837	0.00307138
139.451	-31.8837	0.00197295
139.558	-31.8837	0.0013576
139.664	-31.8837	0.000932398
139.77	-31.8837	0.00062452
139.876	-31.8837	0.000398682
139.982	-31.8837	0.000252268
136.903	-31.9732	0.000108108
137.009	-31.9732	0.000235163
137.115	-31.9732	0.000490366
137.221	-31.9732	0.00102269
137.327	-31.9732	0.00186798
137.434	-31.9732	0.0028115
137.54	-31.9732	0.00383344
137.646	-31.9732	0.00505845
137.752	-31.9732	0.00657752
137.858	-31.9732	0.00835108
137.965	-31.9732	0.0101366
138.071	-31.9732	0.0117411
138.177	-31.9732	0.0130652
138.283	-31.9732	0.0140271
138.389	-31.9732	0.0144841
138.496	-31.9732	0.0144039
138.602	-31.9732	0.0138397
138.708	-31.9732	0.0128921
138.814	-31.9732	0.0117216
138.92	-31.9732	0.010245
139.027	-31.9732	0.00843299
139.133	-31.9732	0.00630849
139.239	-31.9732	0.00421308
139.345	-31.9732	0.00267734
139.451	-31.9732	0.00181289
139.558	-31.9732	0.0012783
139.664	-31.9732	0.000890924
139.77	-31.9732	0.000585017
139.876	-31.9732	0.000378575
139.982	-31.9732	0.000239675
136.903	-32.0626	0.00014671
137.009	-32.0626	0.000228173
137.115	-32.0626	0.000461482
137.221	-32.0626	0.00113912
137.327	-32.0626	0.00226921
137.434	-32.0626	0.003395
137.54	-32.0626	0.00456552
137.646	-32.0626	0.0058178
137.752	-32.0626	0.00723188
137.858	-32.0626	0.0088198
137.965	-32.0626	0.0104609
138.071	-32.0626	0.0119011
138.177	-32.0626	0.0131
138.283	-32.0626	0.0138823
138.389	-32.0626	0.0141324
138.496	-32.0626	0.0138239
138.602	-32.0626	0.0129983
138.708	-32.0626	0.0118504
138.814	-32.0626	0.0105657
138.92	-32.0626	0.00911713
139.027	-32.0626	0.00724927
139.133	-32.0626	0.00531682
139.239	-32.0626	0.00361725
139.345	-32.0626	0.00245114
139.451	-32.0626	0.00170855
139.558	-32.0626	0.00118892
139.664	-32.0626	0.000814408
139.77	-32.0626	0.000547521
139.876	-32.0626	0.000360163
139.982	-32.0626	0.000226738
136.69	-32.1521	6.87839e-05
136.796	-32.1521	7.72777e-05
136.903	-32.1521	0.000137752
137.009	-32.1521	0.000236293
137.115	-32.1521	0.000506825
137.221	-32.1521	0.00135419
137.327	-32.1521	0.00266806
137.434	-32.1521	0.00395422
137.54	-32.1521	0.00515516
137.646	-32.1521	0.00636809
137.752	-32.1521	0.00769655
137.858	-32.1521	0.00915443
137.965	-32.1521	0.0106133
138.071	-32.1521	0.0120382
138.177	-32.1521	0.0131697
138.283	-32.1521	0.0138298
138.389	-32.1521	0.0138818
138.496	-32.1521	0.013335
138.602	-32.1521	0.0122488
138.708	-32.1521	0.0108549
138.814	-32.1521	0.00940459
138.92	-32.1521	0.0079316
139.027	-32.1521	0.00621658
139.133	-32.1521	0.0046497
139.239	-32.1521	0.00333749
139.345	-32.1521	0.00237749
139.451	-32.1521	0.00163428
139.558	-32.1521	0.00109687
139.664	-32.1521	0.000732049
139.77	-32.1521	0.000492356
139.876	-32.1521	0.000331089
139.982	-32.1521	0.000208858
136.478	-32.2416	6.62541e-05
136.584	-32.2416	7.24299e-05
136.69	-32.2416	8.10674e-05
136.796	-32.2416	8.82837e-05
136.903	-32.2416	0.000111101
137.009	-32.2416	0.000200119
137.115	-32.2416	0.000502401
137.221	-32.2416	0.00151088
137.327	-32.2416	0.003028
137.434	-32.2416	0.0043426
137.54	-32.2416	0.00551469
137.646	-32.2416	0.00669127
137.752	-32.2416	0.0079852
137.858	-32.2416	0.00935108
137.965	-32.2416	0.0108145
138.071	-32.2416	0.0121529
138.177	-32.2416	0.01318
138.283	-32.2416	0.0137294
138.389	-32.2416	0.0136997
138.496	-32.2416	0.0130568
138.602	-32.2416	0.0117052
138.708	-32.2416	0.0101345
138.814	-32.2416	0.00861795
138.92	-32.2416	0.00719273
139.027	-32.2416	0.00578245
139.133	-32.2416	0.00439321
139.239	-32.2416	0.00327704
139.345	-32.2416	0.00237081
139.451	-32.2416	0.00159983
139.558	-32.2416	0.00102894
139.664	-32.2416	0.000661968
139.77	-32.2416	0.000441632
139.876	-32.2416	0.000286284
139.982	-32.2416	0.00017778
136.372	-32.331	6.62541e-05
136.478	-32.331	7.41847e-05
136.584	-32.331	8.40682e-05
136.69	-32.331	9.43746e-05
136.796	-32.331	0.000105496
